# .PCD v0.7 - Point Cloud Data file format
VERSION 0.7
FIELDS x y z
SIZE 4 4 4
TYPE F F F
COUNT 1 1 1
WIDTH 1415
HEIGHT 1
VIEWPOINT 0 0 0 1 0 0 0
POINTS 1415
DATA ascii
9576.444814 4586.564442 -7.578725
9574.487862 4565.324115 -10.840021
9572.569997 4544.039134 -14.032638
9575.553562 4527.757183 -8.678024
9573.265641 4505.95071 -12.515128
9572.784045 9946.136981 -5.022308
9570.606148 9928.965384 -8.663878
9572.016499 9908.197616 -6.06061
9570.790449 9890.149872 -8.045991
9569.594511 9872.111047 -9.979134
9573.346288 9849.225156 -3.302394
9569.979074 9833.427797 -9.014495
9572.463949 9811.942674 -4.543321
9572.744068 9792.677316 -3.909079
9571.259372 9775.161654 -6.345908
9572.054565 9755.509041 -4.816013
9571.982811 9736.739314 -4.794868
9570.137229 9719.683119 -7.860134
9574.648863 9696.740573 0.134572
9569.697025 9682.646758 -8.335163
9570.204228 9663.534333 -7.307795
9567.566773 9647.33689 -11.751188
9571.318316 9625.391442 -5.08063
9571.925055 9606.361424 -3.881093
9572.109029 9587.763891 -3.417255
9565.93528 9574.815841 -14.012178
9570.744277 9552.234436 -5.504136
9569.190724 9535.281584 -8.06306
9570.871178 9515.573506 -4.997431
9570.292978 9497.861222 -5.860395
9567.906694 9481.716242 -9.867992
9571.06356 9460.932809 -4.235749
9567.35183 9445.953459 -10.548563
9568.732403 9426.764842 -8.005983
9566.915425 9410.256194 -11.02398
9568.821128 9390.744675 -7.568879
9567.985154 9373.508794 -8.881397
9569.029879 9354.803184 -6.924025
9566.396441 9339.064386 -11.362127
9568.429571 9319.670507 -7.686769
9570.496806 9300.318751 -3.952555
9568.874904 9283.880221 -6.632408
9567.744353 9267.084658 -8.458108
9568.972507 9248.526694 -6.183505
9570.699293 9229.650137 -3.042444
9567.783836 9214.29107 -7.971409
9571.442624 9194.082004 -1.472578
9570.452866 9177.35808 -3.054438
9572.772503 9158.261308 1.115817
9570.430269 9142.578999 -2.817145
9568.111265 9126.886181 -6.709684
9571.461597 9107.204338 -0.748931
9570.60796 9090.537446 -2.094955
9567.894524 9075.181225 -6.673201
9570.866923 9055.929898 -1.370324
9569.621081 9039.614367 -3.398321
9568.400335 9023.300256 -5.382766
9567.678057 9006.672682 -6.50109
9568.403337 8989.115542 -5.10421
9570.580303 8970.653885 -1.185173
9569.940069 8954.073465 -2.161485
9567.42482 8938.716683 -6.395689
9565.883183 8922.743246 -8.938237
9567.222337 8904.976256 -6.475805
9568.114293 8887.535361 -4.790607
9569.988662 8869.533824 -1.398957
9569.983378 8852.728999 -1.273021
9568.093199 8837.087655 -4.421618
9569.574157 8819.446947 -1.714145
9567.733163 8803.809616 -4.777411
9567.831783 8787.04906 -4.471522
9569.395444 8769.475085 -1.621086
9567.628279 8753.846326 -4.556295
9565.884194 8738.210467 -7.451392
9567.047739 8720.96128 -5.296476
9566.795679 8704.533688 -5.600385
9567.050601 8687.854143 -5.023939
9569.259452 8670.153306 -1.054369
9570.050556 8653.260548 0.452771
9564.593363 8639.687573 -8.890793
9569.297833 8620.795238 -0.588217
9568.23362 8604.946798 -2.303282
9567.193152 8589.098195 -3.977145
9565.692236 8573.491981 -6.450535
9566.152515 8556.921898 -5.518688
9567.608464 8539.895511 -2.858288
9569.576897 8522.66388 0.691611
9566.231553 8508.008896 -4.984317
9567.279939 8491.271872 -3.032094
9565.436978 8475.91099 -6.099613
9567.995913 8458.536345 -1.525391
9568.14835 8442.301381 -1.129099
9566.863844 8426.729839 -3.227327
9564.627056 8411.582217 -6.978562
9564.851548 8395.362904 -6.457405
9567.053835 8378.323092 -2.503429
9566.840653 8362.347041 -2.742311
9564.207312 8347.3922 -7.181829
9568.443314 8329.618777 0.301229
9566.345819 8314.465671 -3.208336
9564.270015 8299.297882 -6.680154
9566.13629 8282.585197 -3.310589
9566.067564 8266.657526 -3.299314
9565.532217 8250.924003 -4.097884
9567.965634 8234.097167 0.255199
9566.005248 8218.926512 -3.01641
9567.01522 8202.679998 -1.13375
9565.591646 8187.324737 -3.473861
9565.666252 8171.447782 -3.214425
9568.225805 8154.738273 1.356429
9565.394515 8139.887835 -3.4262
9568.003951 8123.22344 1.230782
9564.231051 8108.674846 -5.185338
9558.505206 8094.717952 -14.989256
9561.185956 8078.083537 -10.208862
9566.361164 8060.732316 -1.101527
9565.637806 8045.228498 -2.227086
9565.431324 8029.578325 -2.456049
9569.202802 8012.79285 4.21515
9566.077027 7998.013656 -1.077822
9565.445706 7982.521269 -2.043894
9561.867219 7967.831797 -8.121737
9567.222319 7950.7494 1.295261
9562.201894 7936.42657 -7.283312
9564.138729 7920.298549 -3.795355
9566.595954 7904.077181 0.594841
9562.134755 7889.563127 -7.013347
9566.127614 7873.021603 0.039632
9562.701667 7858.237791 -5.772972
9564.757645 7842.201307 -2.079233
9563.858051 7826.841906 -3.510795
9562.980773 7811.477655 -4.903631
9562.622803 7796.006576 -5.395999
9564.276035 7780.139844 -2.401202
9565.953127 7764.297607 0.63475
9568.151465 7748.386587 4.574212
9563.407659 7733.773478 -3.52243
9563.661145 7718.233685 -2.954922
9561.946064 7703.040463 -5.800272
9563.240732 7687.340874 -3.427833
9561.570048 7672.134381 -6.196125
9562.910653 7656.456581 -3.744252
9562.779473 7641.017959 -3.84381
9565.163233 7625.230742 0.415989
9561.089037 7610.350389 -6.518364
9558.531746 7595.233123 -10.823112
9561.981517 7579.351562 -4.715905
9560.965198 7564.041203 -6.349707
9559.971034 7548.72241 -7.945046
9564.488865 7532.814502 0.012546
9564.03916 7517.461291 -0.639355
9563.112536 7502.152838 -2.117748
9559.711498 7487.056885 -7.884143
9561.325822 7471.512317 -4.959054
9563.462512 7455.950894 -1.128958
9563.124582 7440.59364 -1.587155
9558.81233 7425.494434 -8.93192
9557.019709 7410.19952 -11.910476
9561.245414 7394.566186 -4.461102
9561.496468 7379.173842 -3.898727
9562.269737 7363.765434 -2.431618
9560.566423 7348.457286 -5.255344
9558.385394 7333.145885 -8.906553
9560.725415 7317.701704 -4.725164
9562.088256 7302.304441 -2.236863
9560.973936 7286.955595 -4.039971
9560.881785 7271.588101 -4.072296
9560.811988 7256.220457 -4.065898
9561.764483 7240.857701 -2.288697
9563.7393 7225.517419 1.259211
9559.73678 7210.101377 -5.546375
9555.756651 7194.639157 -12.312796
9557.298601 7179.285894 -9.514618
9558.362926 7163.933716 -7.543809
9559.949506 7148.613844 -4.668609
9559.058773 7133.198226 -6.083897
9558.690393 7117.79772 -6.594485
9560.343879 7102.507089 -3.603655
9558.020933 7086.982843 -7.498991
9557.220089 7071.534282 -8.758335
9556.94154 7056.112992 -9.113181
9560.183374 7040.969422 -3.37223
9555.452593 7025.171774 -11.436271
9559.23839 7010.101276 -4.75368
9560.048547 6994.779616 -3.223515
9557.884107 6979.154614 -6.843539
9558.239736 6963.776864 -6.100287
9555.122402 6947.99766 -11.369697
9556.521844 6932.725831 -8.819233
9554.948295 6917.08728 -11.415655
9557.889675 6902.026066 -6.195981
9559.355558 6886.788914 -3.53077
9560.843455 6871.566478 -0.827568
9557.365156 6855.607692 -6.720882
9559.895437 6840.5421 -2.213374
9556.463923 6824.532165 -8.025269
9555.050538 6808.814746 -10.343748
9553.660458 6793.0779 -12.62172
9556.778168 6778.128319 -7.097706
9558.92078 6763.026714 -3.261554
9555.606783 6746.897125 -8.869022
9557.296169 6731.708554 -5.817296
9555.025364 6715.726373 -9.618992
9557.257181 6700.650872 -5.628645
9554.535799 6684.527528 -10.209736
9556.812148 6669.467315 -6.142437
9560.104352 6654.654945 -0.317522
9558.447194 6638.719927 -3.056789
9556.814004 6622.761216 -5.754376
9556.198229 6607.02184 -6.691414
9555.605861 6591.270611 -7.587843
9557.518703 6576.143741 -4.149871
9553.499111 6559.472955 -10.975512
9556.449484 6544.612125 -5.74257
9555.95012 6528.8293 -6.477784
9556.961158 6513.451563 -4.600022
9557.499172 6497.938464 -3.540567
9553.602904 6481.125422 -10.151609
9556.663464 6466.324765 -4.728492
9553.806934 6449.750623 -9.540528
9554.438452 6434.209246 -8.31904
9551.632043 6417.576955 -13.043866
9556.264224 6403.289077 -4.902747
9555.482219 6387.269258 -6.125988
9552.255795 6370.410656 -11.57665
9551.029932 6354.177873 -13.567096
9552.295165 6338.775854 -11.249294
9555.061909 6323.90128 -6.334931
9553.414632 6307.466893 -9.053849
9553.762861 6291.721991 -8.321829
9553.149974 6275.610139 -9.25171
9553.053583 6259.668362 -9.288356
9555.439986 6244.655551 -5.031948
9552.93281 6227.75873 -9.236862
9556.347062 6213.14394 -3.203372
9552.908219 6195.815291 -9.018702
9555.385435 6180.826054 -4.605399
9551.999226 6163.435585 -10.329166
9553.542228 6148.043941 -7.530935
9551.189119 6131.001613 -11.468126
9552.289817 6115.395707 -9.434424
9553.902785 6100.006944 -6.515199
9554.560343 6084.195875 -5.247549
9553.775696 6067.726717 -6.472775
9554.481499 6051.904351 -5.121589
9550.331052 6033.835313 -12.164121
9553.525797 6019.119319 -6.51075
9556.253709 6004.20056 -1.664436
9552.184395 5986.041051 -8.565892
9552.038984 5969.711369 -8.685366
9552.891414 5953.847341 -7.08025
9555.225701 5938.707593 -2.914239
9551.75363 5920.652448 -8.782285
9553.164901 5905.018203 -6.211228
9551.689465 5887.889819 -8.62841
9553.149166 5872.250372 -5.973566
9555.116294 5856.872607 -2.441964
9550.331307 5837.888676 -10.577043
9554.766082 5823.801545 -2.781657
9548.590162 5803.945619 -13.31916
9551.139492 5788.809851 -8.781346
9552.263337 5772.883135 -6.706387
9550.037069 5755.050577 -10.41904
9552.174874 5739.657578 -6.592209
9550.966507 5722.331067 -8.545943
9554.113667 5707.505959 -2.975494
9553.918629 5690.719688 -3.178508
9555.67019 5675.06443 -0.018917
9558.404243 5659.995376 4.837688
9559.722258 5644.069411 7.248326
9557.234001 5625.787763 3.084829
9555.254919 5607.761845 -0.19885
9551.872059 5588.798879 -5.906623
9548.999436 5570.086506 -10.732698
9549.498372 5553.468499 -9.735691
9550.02328 5536.842724 -8.693726
9552.479001 5521.454974 -4.317364
9554.005671 5505.453547 -1.545408
9552.229421 5487.237349 -4.47686
9549.0592 5468.027365 -9.814975
9546.871202 5449.411225 -13.456613
9551.823947 5435.633248 -4.768461
9546.851652 5415.01127 -13.216971
9554.214851 5402.914974 -0.367276
9550.722948 5383.220156 -6.259191
9550.09819 5365.486941 -7.20067
9549.031066 5347.39243 -8.905588
9550.349589 5330.978537 -6.491835
9550.281746 5313.53135 -6.471266
9550.712389 5296.414928 -5.590011
9549.292067 5277.888408 -7.903673
9548.841434 5260.034693 -8.543208
9548.420351 5242.159738 -9.131496
9548.965048 5224.979755 -8.052606
9548.602219 5207.068332 -8.539921
9551.538485 5191.680295 -3.333094
9549.365378 5172.282122 -6.944363
9549.090311 5154.317409 -7.279574
9548.845129 5136.332607 -7.562977
9548.164944 5117.953661 -8.596822
9550.302274 5101.811323 -4.768383
9552.928117 5086.056064 -0.096985
9548.627712 5064.578784 -7.377093
9548.069491 5046.114161 -8.199477
9548.929252 5028.788373 -6.57496
9547.508762 5009.502685 -8.884589
9549.81077 4993.326903 -4.771352
9546.150563 4972.015019 -10.944523
9547.589525 4955.024734 -8.319937
9549.514963 4938.43363 -4.856022
9549.172261 4919.827464 -5.304854
9541.987751 4895.102552 -17.55586
9546.293932 4880.501595 -9.984471
9547.42084 4863.04942 -7.89736
9548.57617 4845.590967 -5.761099
9548.848197 4827.292421 -5.148265
9546.874713 4806.87918 -8.408216
9548.120916 4789.379244 -6.114628
9545.309091 4768.049541 -10.819677
9544.804147 4748.804881 -11.545677
9548.40835 4733.405681 -5.184888
9546.156192 4712.401389 -8.923556
9544.84591 4692.221262 -11.03749
9544.022892 4672.443238 -12.310774
9546.387388 4655.719334 -8.087332
9544.281144 4634.569114 -11.572708
9549.399096 4620.507176 -2.601392
9544.2219 4596.168293 -11.381
9545.809729 4578.51395 -8.496035
9545.190918 4558.58796 -9.415347
9544.607682 4538.632928 -10.272966
9546.735031 4521.402162 -6.457308
9547.999866 4503.250991 -4.128474
9542.3431 9954.385519 -5.910736
9539.239266 9938.071081 -11.105092
9542.893768 9915.004838 -4.669734
9542.097976 9896.471408 -5.892856
9536.381669 9882.837057 -15.582821
9540.601588 9859.446974 -8.175934
9540.352417 9840.517519 -8.459187
9543.301334 9818.554215 -3.240343
9538.141481 9804.453163 -11.97293
9537.988287 9785.573668 -12.09175
9537.413743 9767.14313 -12.935707
9542.327397 9743.619086 -4.338538
9542.278575 9724.82831 -4.278852
9544.542232 9703.956392 -0.241526
9540.451993 9688.982116 -7.134286
9542.327024 9668.584416 -3.766111
9539.660844 9652.355254 -8.209421
9541.145756 9632.427348 -5.512928
9538.534928 9616.202834 -9.861207
9536.408692 9599.564372 -13.376033
9537.070226 9580.510517 -12.096433
9537.304165 9561.884172 -11.552517
9540.800365 9540.504898 -5.398733
9536.943921 9525.488939 -11.889591
9536.347271 9507.709769 -12.774731
9540.875524 9485.669555 -4.847516
9538.489011 9469.489672 -8.810947
9542.628445 9447.937167 -1.55335
9540.764432 9431.398545 -4.618711
9539.857303 9414.102023 -6.038896
9537.114036 9398.31459 -10.616067
9541.860331 9376.555827 -2.31685
9536.370142 9363.004498 -11.616756
9541.186877 9341.334191 -3.197347
9539.020662 9325.202674 -6.78291
9538.285546 9307.979706 -7.908363
9539.925069 9288.97212 -4.95201
9540.658026 9270.713927 -3.554357
9540.010736 9253.542461 -4.52946
9537.50746 9237.784125 -8.694813
9540.213788 9218.186617 -3.906003
9536.819378 9203.126262 -9.603127
9538.171355 9184.618712 -7.142644
9540.501048 9165.464443 -3.002182
9536.708819 9150.73585 -9.383074
9535.307131 9134.308692 -11.655597
9540.099539 9113.571704 -3.28385
9540.180309 9096.195011 -3.009314
9538.387513 9080.139979 -5.954437
9536.619173 9064.08049 -8.857541
9537.257568 9046.413865 -7.625259
9538.879059 9028.135033 -4.704058
9538.144577 9011.466074 -5.831137
9537.914252 8994.492043 -6.092123
9538.189456 8977.221396 -5.484736
9539.450337 8959.355856 -3.184152
9538.824024 8942.736111 -4.125985
9540.142715 8924.91941 -1.72659
9537.64981 8909.520415 -5.875267
9537.582466 8892.629131 -5.857221
9536.579968 8876.337516 -7.445697
9535.60263 8860.048859 -8.991019
9538.505801 8841.464866 -3.87103
9537.582166 8825.204884 -5.32443
9537.166385 8808.666608 -5.905629
9537.742898 8791.579634 -4.782671
9538.830566 8774.237031 -2.78204
9537.042397 8758.560757 -5.720644
9538.668607 8740.98355 -2.795518
9536.445128 8725.580486 -6.481797
9535.214654 8709.635094 -8.462756
9539.835929 8690.543054 -0.395074
9537.686367 8675.147949 -3.954585
9537.9914 8658.458267 -3.299221
9532.481223 8644.829165 -12.629082
9535.270302 8626.883921 -7.708636
9540.039696 8607.99113 0.61152
9533.619753 8594.806394 -10.280021
9537.469879 8576.468676 -3.538774
9537.442043 8560.104292 -3.45577
9536.950606 8543.98822 -4.168787
9538.930695 8526.708463 -0.638975
9535.062279 8512.236572 -7.149412
9534.644101 8496.133399 -7.736858
9534.740951 8479.811255 -7.440304
9537.316826 8462.388338 -2.888586
9533.537184 8447.863347 -9.246294
9534.691592 8431.136165 -7.134841
9536.855969 8414.004905 -3.290132
9539.048061 8396.909296 0.601822
9539.298264 8380.683148 1.160631
9538.095421 8365.086913 -0.774449
9534.94371 8350.297825 -6.054128
9536.745793 8333.483714 -2.832254
9540.055483 8316.109335 2.976519
9537.960687 8300.918769 -0.489411
9534.899428 8286.096242 -5.613678
9536.803857 8269.363359 -2.216945
9538.734831 8252.661881 1.225056
9536.731857 8237.453818 -2.083254
9537.227507 8221.33236 -1.10435
9534.278679 8206.464655 -6.035428
9538.78881 8188.959569 1.830987
9537.374258 8173.570646 -0.46779
9538.464192 8157.331891 1.530173
9533.619474 8143.100657 -6.653257
9537.24102 8126.056319 -0.312405
9535.421502 8110.819807 -3.305888
9533.126661 8095.727223 -7.114653
9529.360558 8081.078177 -13.447024
9533.082562 8064.12572 -6.934678
9534.341339 8047.965428 -4.647854
9538.614832 8030.954649 2.809663
9535.437751 8016.138775 -2.512293
9535.273978 8000.45543 -2.665834
9536.630514 7984.366942 -0.211994
9535.515836 7968.970587 -1.99655
9533.924333 7953.699194 -4.598813
9531.855415 7938.544238 -8.019727
9535.305802 7921.994255 -1.975554
9535.782442 7906.224718 -1.031261
9535.282465 7890.705923 -1.761767
9536.306427 7874.837772 0.120868
9533.850777 7859.783313 -3.963118
9533.419397 7844.263184 -4.576028
9535.014381 7828.312212 -1.714558
9532.625391 7813.225415 -5.68402
9533.265134 7797.5038 -4.46054
9533.928414 7781.794948 -3.196824
9535.116702 7766.002667 -1.033149
9532.315556 7750.976689 -5.708961
9532.546593 7735.380108 -5.186451
9534.808534 7719.440485 -1.182505
9535.588484 7703.785921 0.280726
9534.885183 7688.390464 -0.798711
9533.702112 7673.070269 -2.70051
9534.551197 7657.436564 -1.118972
9532.910691 7642.182543 -3.804786
9532.297685 7626.773153 -4.729371
9531.707267 7611.360607 -5.615223
9530.63653 7596.009466 -7.324269
9534.618329 7580.034344 -0.374016
9528.562256 7565.281201 -10.627003
9531.0812 7549.514305 -6.184059
9529.597475 7534.202273 -8.60075
9534.679982 7518.227443 0.234897
9530.724551 7503.160338 -6.417412
9531.322481 7487.653575 -5.266933
9528.418015 7472.44478 -10.117927
9531.075972 7456.783967 -5.437672
9532.749835 7441.227072 -2.443853
9527.897296 7426.113915 -10.632342
9530.12042 7410.53314 -6.697516
9531.358864 7395.03342 -4.449946
9527.076631 7379.811112 -11.660685
9530.376379 7364.228707 -5.881741
9533.195267 7348.704015 -0.926903
9529.988249 7333.393606 -6.295237
9531.844535 7317.926557 -2.989648
9530.698842 7302.537418 -4.826611
9528.063197 7287.155089 -9.215683
9529.987543 7271.712987 -5.793719
9529.917883 7256.29588 -5.787379
9530.879229 7240.883636 -4.015128
9529.342214 7225.456385 -6.522059
9535.390803 7210.135818 3.963086
9524.823455 7194.516857 -14.00983
9527.892091 7179.15633 -8.628558
9527.454012 7163.712431 -9.253066
9530.567711 7148.402754 -3.795035
9528.158284 7132.878015 -7.795506
9530.308733 7117.556639 -3.987291
9530.969331 7102.173818 -2.730465
9529.636281 7086.671975 -4.887485
9529.838102 7071.257413 -4.416233
9528.550638 7055.732359 -6.495002
9528.293917 7040.272044 -6.80881
9526.044445 7024.635082 -10.534461
9528.856316 7009.431659 -5.594372
9525.141412 6993.622722 -11.828706
9525.983389 6978.236399 -10.261274
9529.366016 6963.132139 -4.344424
9527.23135 6947.430625 -7.87298
9524.113121 6931.581473 -13.08504
9526.556015 6916.392856 -8.777167
9525.497725 6900.765523 -10.462719
9526.475505 6885.400972 -8.662963
9525.966373 6869.828729 -9.408383
9524.977252 6854.173023 -10.97529
9528.537749 6839.20536 -4.755042
9524.577308 6823.062397 -11.407429
9526.674024 6807.87657 -7.692678
9527.787525 6792.5385 -5.660804
9529.928391 6777.389341 -1.870777
9523.048787 6760.596573 -13.518044
9524.733479 6745.342839 -10.508574
9524.934041 6729.810112 -10.038942
9523.149708 6713.871275 -12.965848
9524.902168 6698.636644 -9.840541
9526.67673 6683.418287 -6.677541
9522.956591 6667.007777 -12.91643
9530.292032 6653.030896 -0.238681
9523.612066 6635.896058 -11.541462
9526.98062 6621.050546 -5.651365
9525.361324 6605.024999 -8.295105
9527.772111 6589.970589 -4.043881
9524.698547 6573.539899 -9.175331
9523.151573 6557.459057 -11.694854
9525.130363 6542.28606 -8.182717
9525.13111 6526.587203 -8.05442
9525.155287 6510.882973 -7.885987
9526.701733 6495.598357 -5.113597
9527.771036 6480.181422 -3.157441
9525.368565 6463.739414 -7.139601
9526.48462 6448.315569 -5.103394
9521.637941 6431.061012 -13.265584
9522.801913 6415.61644 -11.147223
9525.483618 6400.655589 -6.433198
9523.703573 6384.263472 -9.34987
9524.936289 6368.831967 -7.114002
9524.201053 6352.738007 -8.243596
9523.490387 6336.628728 -9.33103
9526.781756 6321.89004 -3.574783
9523.633721 6304.893059 -8.829941
9522.00289 6288.389404 -11.490424
9526.851344 6274.2231 -3.071928
9526.757187 6258.258441 -3.104807
9525.69545 6241.909995 -4.791939
9523.667763 6225.160765 -8.130397
9524.638738 6209.539703 -6.341824
9522.662398 6192.745201 -9.592079
9524.176325 6177.312369 -6.875151
9522.745778 6160.677865 -9.191962
9525.295278 6145.655589 -4.704705
9521.44499 6127.956673 -11.157647
9522.560395 6112.308057 -9.121813
9523.205751 6096.450233 -7.889464
9522.888929 6080.158789 -8.301725
9524.075471 6064.511144 -6.144236
9524.300483 6048.424486 -5.630206
9517.660612 6029.187484 -16.849205
9520.398231 6014.184516 -12.040378
9518.734164 5997.131538 -14.754424
9525.446591 5984.011143 -3.152737
9522.359195 5966.240831 -8.299054
9520.772597 5949.140937 -10.880237
9520.193712 5932.49556 -11.739114
9522.579595 5917.299148 -7.531594
9524.008659 5901.62538 -4.959166
9523.015823 5884.70755 -6.52509
9522.538677 5868.020294 -7.209657
9521.111175 5850.805412 -9.517848
9517.759624 5832.529366 -15.113139
9519.314946 5816.815767 -12.324505
9522.355424 5801.900813 -6.998553
9519.08813 5783.540487 -12.449089
9521.6895 5768.366603 -7.873326
9520.91031 5751.303811 -9.072766
9521.615567 5735.045862 -7.736158
9524.77233 5720.174162 -2.211767
9520.676937 5701.114195 -9.075487
9524.850884 5686.816305 -1.813609
9525.655777 5670.54914 -0.306597
9528.420455 5655.435431 4.547838
9526.374552 5637.421035 1.185792
9524.841691 5619.664995 -1.299669
9524.303082 5602.473382 -2.08677
9522.828364 5584.661786 -4.472379
9521.383257 5566.819916 -6.807122
9520.448934 5549.253826 -8.269287
9520.504805 5532.280643 -8.040272
9522.028473 5516.228545 -5.304655
9519.738569 5497.666825 -9.081
9520.356276 5480.966246 -7.892128
9521.000365 5464.258599 -6.658109
9517.365371 5444.642147 -12.730211
9520.456105 5429.522007 -7.318428
9517.839211 5410.487582 -11.651572
9520.025241 5394.715122 -7.784361
9519.85246 5377.285771 -7.944222
9518.280123 5358.830883 -10.493177
9518.165852 5341.359436 -10.552695
9515.704978 5322.163114 -14.617847
9519.446847 5307.399879 -8.094339
9517.520864 5288.498771 -11.245897
9516.101195 5269.90956 -13.532834
9518.497722 5254.108544 -9.305683
9518.555356 5236.542615 -9.070657
9520.057949 5220.035118 -6.369231
9518.285875 5201.003554 -9.256699
9519.372837 5184.115638 -7.264366
9517.19357 5164.660628 -10.846143
9516.928383 5146.639095 -11.160995
9515.754639 5127.854455 -13.026081
9521.177243 5114.278566 -3.634424
9517.251 5093.209018 -10.196085
9517.105954 5075.113959 -10.305054
9520.729058 5060.058227 -3.984173
9517.373909 5039.251328 -9.570134
9517.319807 5021.101828 -9.523272
9515.899695 5001.762568 -11.806804
9516.37354 4983.960992 -10.858688
9516.412575 4965.750805 -10.652205
9516.482393 4947.522579 -10.39298
9520.289078 4932.484988 -3.758652
9518.102619 4912.223984 -7.348139
9520.573795 4895.982744 -2.991991
9517.9936 4875.251398 -7.252421
9519.13878 4857.764698 -5.157847
9519.392058 4839.443082 -4.584449
9517.377955 4819.019891 -7.878142
9514.482899 4797.714581 -12.673906
9519.880492 4783.95698 -3.325822
9519.343526 4764.717611 -4.099262
9516.554072 4743.314217 -8.713816
9511.521513 4719.707601 -17.153121
9517.023842 4705.976812 -7.626396
9514.346933 4684.451165 -12.047681
9514.893775 4665.940133 -10.971269
9515.018173 4646.973748 -10.614974
9516.082541 4628.874146 -8.655685
9515.818889 4609.427892 -8.960564
9510.163369 4584.575616 -18.458198
9515.84644 4570.913202 -8.623411
9514.332941 4550.035804 -11.05823
9512.85802 4529.119066 -13.426829
9511.421784 4508.163256 -15.729031
9510.476266 9963.99713 -8.914282
9510.045075 9944.916865 -9.503079
9514.626667 9920.912948 -1.562726
9510.643283 9905.472674 -8.196271
9508.952597 9887.789439 -10.928831
9511.837888 9865.695033 -5.87607
9510.212552 9848.045652 -8.497911
9510.440415 9828.655391 -7.967084
9508.41964 9811.458687 -11.261967
9509.170451 9791.675171 -9.842013
9510.872756 9771.065888 -6.803823
9512.154638 9750.924156 -4.481249
9510.258912 9733.781114 -7.564188
9512.069608 9713.27423 -4.34277
9507.932224 9698.241941 -11.238861
9509.810385 9677.785998 -7.903292
9509.87942 9659.023289 -7.645121
9511.368046 9639.052909 -4.972864
9507.337745 9624.007717 -11.686974
9510.282087 9602.868287 -6.539606
9511.409579 9583.391185 -4.482498
9507.924384 9567.940269 -10.26976
9507.719354 9549.693612 -10.47906
9508.943228 9530.283149 -8.258836
9510.201676 9510.906901 -5.980189
9503.553683 9498.170714 -17.14541
9511.886546 9473.029732 -2.838662
9507.627753 9458.350504 -9.941588
9512.766339 9436.031694 -1.067175
9507.621069 9422.103233 -9.677282
9510.953687 9401.382689 -3.874113
9507.737211 9385.933395 -9.205071
9507.841203 9367.878009 -8.891243
9507.504078 9350.209589 -9.327503
9508.612951 9331.462976 -7.305946
9508.336184 9313.832338 -7.640043
9509.508577 9295.140164 -5.511097
9508.818109 9277.904255 -6.548805
9510.05321 9259.264616 -4.313835
9510.370836 9241.358435 -3.638545
9508.341487 9225.213557 -6.952315
9512.524243 9204.574427 0.291456
9510.55133 9188.453658 -2.926706
9509.557166 9171.647845 -4.481569
9508.11236 9155.184751 -6.802332
9511.473257 9135.378778 -0.956758
9508.171102 9120.270269 -6.433974
9509.680598 9101.852149 -3.735036
9505.46797 9087.380842 -10.759248
9509.434705 9067.380876 -3.885571
9508.633263 9050.648417 -5.1139
9511.705961 9031.380237 0.239885
9507.591645 9016.889112 -6.617285
9508.316144 8999.243525 -5.253492
9508.105284 8982.24092 -5.478994
9507.921859 8965.251351 -5.65804
9510.182258 8946.755018 -1.68575
9510.055872 8929.805892 -1.768324
9510.440979 8912.571878 -0.982194
9506.492442 8898.018145 -7.557477
9507.414893 8880.504956 -5.858818
9506.909724 8863.887253 -6.585253
9505.944874 8847.565513 -8.092554
9506.951009 8830.108884 -6.252348
9510.42008 8811.269264 -0.229403
9510.02412 8794.71503 -0.771036
9507.703602 8779.27471 -4.581215
9504.917769 8764.09483 -9.181531
9506.550393 8746.461582 -6.27838
9503.323288 8731.538034 -11.628001
9505.989094 8713.411392 -6.970793
9508.196006 8695.590646 -3.093201
9508.47242 8678.845562 -2.493926
9510.737517 8661.09043 1.481849
9507.63265 8646.164792 -3.660347
9507.005349 8629.961646 -4.595862
9506.894756 8613.515675 -4.654182
9508.778036 8596.099719 -1.327533
9505.766144 8581.141871 -6.311724
9503.761082 8565.682276 -9.586508
9503.751301 8549.264437 -9.47403
9508.701968 8530.518675 -0.941037
9505.290263 8515.770475 -6.603837
9507.335215 8498.483356 -3.003971
9507.924934 8481.907408 -1.874553
9508.54086 8465.349411 -0.700824
9504.230923 8451.007415 -7.888027
9507.86901 8433.1557 -1.584989
9506.57851 8417.497576 -3.64732
9507.296206 8400.990221 -2.30138
9507.04689 8384.918436 -2.596761
9506.822267 8368.854149 -2.850319
9506.622317 8352.797508 -3.062095
9505.949569 8336.948535 -4.076285
9505.798587 8320.90477 -4.205112
9509.158538 8303.509882 1.623644
9510.055491 8287.119776 3.27266
9503.000013 8273.764854 -8.57217
9507.436147 8256.069574 -0.91804
9505.911474 8240.627341 -3.378141
9505.408559 8224.81699 -4.104623
9505.429304 8208.832849 -3.942704
9505.974506 8192.683649 -2.891105
9506.544647 8176.549422 -1.797338
9505.137488 8161.104004 -4.058136
9507.258785 8144.492032 -0.333145
9503.393722 8129.864891 -6.763544
9506.065981 8113.124071 -2.104226
9506.25722 8097.206627 -1.653748
9505.970917 8081.453349 -2.013391
9503.700254 8066.309323 -5.738933
9505.971814 8049.812097 -1.760091
9505.756953 8034.07559 -1.998742
9505.565797 8018.343994 -2.197245
9507.410045 8002.05874 1.056244
9505.254537 7986.896079 -2.473914
9502.114281 7971.983508 -7.673983
9506.54859 7955.076373 -0.028419
9507.483854 7939.123758 1.682933
9502.899959 7924.566253 -5.965083
9503.881833 7908.61659 -4.174744
9504.383716 7892.803966 -3.198467
9503.395962 7877.353043 -4.748171
9506.973391 7860.873517 1.442799
9506.537768 7845.327377 0.829104
9505.62024 7829.889931 -0.601674
9504.725522 7814.44761 -1.993751
9502.337465 7799.306941 -5.917602
9506.03781 7782.953431 0.480692
9504.201098 7767.707323 -2.508409
9499.3515 7753.00596 -10.60501
9502.618326 7736.805234 -4.942154
9505.404155 7720.734432 -0.095015
9504.164553 7705.378275 -2.07177
9503.453914 7689.930644 -3.151825
9505.298794 7674.084554 0.099817
9502.607796 7658.948386 -4.336984
9500.445438 7643.712429 -7.877566
9501.853523 7627.964014 -5.366485
9503.792379 7612.168303 -1.956001
9502.205329 7596.849695 -4.521426
9500.133478 7581.578109 -7.908357
9502.649774 7565.758601 -3.519579
9501.638161 7550.361425 -5.109668
9501.156718 7534.903103 -5.801263
9502.220907 7519.292639 -3.873667
9501.277747 7503.885422 -5.347694
9502.38829 7488.293842 -3.341714
9500.983003 7472.923724 -5.598759
9502.13976 7457.348653 -3.514615
9500.779969 7441.966236 -5.694483
9497.918728 7426.668033 -10.418142
9499.65247 7411.073149 -7.356532
9502.933896 7395.420212 -1.673017
9498.616232 7380.163105 -8.863844
9500.419341 7364.608246 -5.685047
9498.179585 7349.219212 -9.355293
9500.537044 7333.670851 -5.237596
9501.901047 7318.175142 -2.803013
9498.20459 7302.788434 -8.940598
9500.12275 7287.291284 -5.567381
9500.538774 7271.827297 -4.738717
9501.486093 7256.368496 -3.010198
9500.931086 7240.914024 -3.826323
9500.398927 7225.453843 -4.603704
9497.347564 7209.946846 -9.647688
9496.861164 7194.461092 -10.347366
9499.448081 7179.054418 -5.842166
9499.007439 7163.575618 -6.464407
9499.606449 7148.131531 -5.325992
9499.719946 7132.671364 -5.009807
9497.823021 7117.109417 -8.098023
9495.94921 7101.52536 -11.14692
9497.148123 7086.108433 -8.992654
9501.927338 7070.945537 -0.776196
9500.122357 7055.351196 -3.70846
9501.389397 7039.976718 -1.439175
9500.138702 7024.399942 -3.432763
9500.435276 7008.945829 -2.80662
9498.214901 6993.248988 -6.441698
9497.033839 6977.629025 -8.317043
9497.9074 6962.213052 -6.713961
9499.81923 6946.920709 -3.35329
9498.199722 6931.224329 -5.970702
9496.096142 6915.443963 -9.407368
9496.553876 6899.969363 -8.508206
9495.512248 6884.289887 -10.147009
9495.001419 6868.668317 -10.887241
9493.499436 6852.888212 -13.305018
9497.59959 6837.946235 -6.240756
9493.101839 6821.673169 -13.728796
9496.739741 6806.686477 -7.447173
9496.851641 6791.131507 -7.133287
9500.026714 6776.112206 -1.635382
9498.157973 6760.201036 -4.673461
9497.326231 6744.455846 -5.95645
9501.074744 6729.582122 0.511492
9498.770734 6713.533465 -3.262819
9498.515315 6697.870929 -3.570392
9497.271646 6681.987597 -5.550104
9496.557777 6666.195819 -6.633216
9494.856623 6650.16617 -9.386696
9499.244721 6635.500374 -1.837285
9495.569721 6618.983838 -7.930193
9495.456079 6603.270583 -7.997414
9495.870931 6587.675586 -7.170463
9494.290177 6571.571697 -9.719591
9495.761366 6556.225172 -7.1055
9493.220282 6539.826652 -11.278932
9490.704754 6523.393806 -15.408844
9496.782384 6509.285089 -5.002475
9495.826181 6493.257841 -6.494558
9490.865911 6476.058118 -14.759309
9492.980634 6460.858955 -11.056626
9491.595373 6444.626341 -13.273922
9493.755792 6429.443618 -9.494058
9494.932837 6413.967394 -7.377506
9496.635315 6398.657142 -4.37236
9492.332971 6381.41906 -11.522692
9493.581094 6365.935853 -9.285831
9494.350354 6350.292687 -7.858827
9492.635192 6333.799724 -10.633145
9493.953824 6318.319393 -8.277024
9496.798621 6303.375199 -3.340247
9496.15908 6287.203684 -4.295418
9493.041674 6270.108463 -9.440219
9494.454617 6254.631991 -6.92459
9492.390228 6237.851363 -10.288434
9494.850462 6222.752686 -6.002047
9495.334564 6206.901247 -5.056836
9494.345051 6190.459003 -6.602945
9489.389802 6172.405753 -14.85334
9497.928436 6159.735723 -0.29108
9493.026245 6141.629628 -8.451305
9489.64881 6124.081345 -14.033442
9491.277932 6108.588964 -11.152032
9492.432564 6092.893108 -9.072742
9496.59368 6078.497462 -1.911554
9492.825175 6060.638554 -8.153854
9491.569157 6043.835736 -10.149039
9496.294374 6029.703418 -2.034672
9489.633417 6010.386217 -13.164732
9494.404223 5996.277621 -4.973464
9492.26095 5978.951337 -8.467561
9494.105049 5963.477378 -5.222747
9493.993936 5947.059634 -5.282185
9494.896909 5931.113352 -3.627809
9492.861145 5913.701032 -6.939409
9492.827933 5897.243491 -6.866799
9491.341129 5880.024994 -9.250272
9494.810048 5865.306465 -3.259801
9493.868086 5848.316254 -4.722398
9493.445532 5831.56259 -5.30719
9493.54132 5815.054072 -5.016051
9491.206678 5797.215165 -8.831032
9490.865458 5780.405377 -9.277853
9491.041578 5763.84965 -8.85051
9490.753673 5747.011693 -9.206965
9492.941299 5731.534632 -5.381302
9489.769331 5713.012206 -10.609517
9495.918663 5699.77685 -0.091548
9499.15337 5684.897681 5.502657
9497.528354 5667.178989 2.888005
9496.908256 5650.007492 1.971036
9495.828847 5632.524183 0.278477
9497.212484 5616.489381 2.746204
9490.351792 5595.399359 -8.710171
9490.820109 5578.722375 -7.78789
9488.887189 5560.521983 -10.9208
9489.410666 5543.81526 -9.905039
9490.929993 5527.718088 -7.207447
9489.084659 5509.444772 -10.191713
9490.172958 5493.021338 -8.221793
9491.770275 5476.913144 -5.392296
9490.495414 5458.890957 -7.412591
9489.25096 5440.839856 -9.381257
9487.555092 5422.434863 -12.111823
9490.223541 5406.947164 -7.473361
9489.548365 5389.160401 -8.480192
9490.344298 5372.351227 -7.003115
9487.807254 5353.182937 -11.15284
9491.057811 5338.037202 -5.531515
9489.061446 5319.15521 -8.767926
9485.18403 5298.85745 -15.179363
9484.211616 5280.582324 -16.686445
9485.65775 5264.029352 -14.110736
9489.991824 5249.592145 -6.66028
9486.722439 5229.503968 -12.043963
9488.248939 5212.942067 -9.332386
9489.326155 5196.020442 -7.379071
9487.58121 5176.914054 -10.188782
9486.818584 5158.503278 -11.34026
9489.404307 5142.64871 -6.840612
9488.227789 5123.834366 -8.690192
9486.138525 5104.240971 -12.079761
9488.806284 5088.375675 -7.441425
9485.838352 5067.967889 -12.313111
9489.032067 5052.478644 -6.787114
9487.543426 5033.158072 -9.162008
9485.149074 5013.027235 -13.064745
9488.424208 4997.535319 -7.401183
9487.03399 4978.132134 -9.609112
9486.146517 4959.090417 -10.968476
9488.098562 4942.410313 -7.536982
9486.340302 4922.525383 -10.364918
9487.883541 4905.42753 -7.622833
9485.261194 4884.670921 -11.907787
9487.330595 4867.955527 -8.277763
9483.849827 4846.304227 -14.009974
9486.907936 4830.394394 -8.711872
9487.672673 4812.414893 -7.282166
9485.227347 4791.486989 -11.266668
9485.594778 4773.044817 -10.506576
9489.687325 4757.985876 -3.463553
9487.346822 4736.967962 -7.270248
9489.649901 4720.204515 -3.245138
9486.462123 4698.253405 -8.479948
9484.693846 4677.551442 -11.320356
9483.880943 4657.684462 -12.549247
9483.561783 4638.22778 -12.945203
9485.563497 4620.962432 -9.427358
9483.940672 4600.131729 -12.021029
9484.636253 4581.503235 -10.70516
9484.908777 4562.409906 -10.10239
9481.123275 4539.215026 -16.341235
9484.646761 4523.254712 -10.25677
9482.301847 4501.34766 -14.065944
9479.616181 9952.66679 -9.094683
9480.573457 9932.213165 -7.339969
9478.825746 9914.474365 -10.136264
9482.1438 9891.853816 -4.41076
9480.004405 9874.59242 -7.866419
9482.484873 9852.940791 -3.550838
9479.948892 9836.139408 -7.673948
9479.742213 9817.163587 -7.879081
9479.569002 9798.208013 -8.028172
9478.967423 9779.701313 -8.898007
9477.935479 9761.635813 -10.491873
9479.712639 9741.041824 -7.361449
9478.745929 9723.013071 -8.846064
9478.738514 9704.159369 -8.717566
9479.694133 9684.496782 -6.969809
9480.685299 9664.866555 -5.162631
9475.651152 9650.597841 -13.487832
9481.840259 9626.518648 -2.940581
9479.664194 9609.813814 -6.460031
9476.57868 9593.90888 -11.508673
9482.89064 9570.003984 -0.756595
9477.519332 9556.106638 -9.648722
9477.804583 9537.441248 -9.030337
9478.122382 9518.799315 -8.357497
9479.414759 9499.403893 -6.046492
9478.383727 9481.972554 -7.641772
9475.020458 9466.46524 -13.157822
9476.408172 9447.133994 -10.687278
9477.830436 9427.837993 -8.159021
9478.813217 9408.952597 -6.369861
9474.609659 9394.19428 -13.298558
9480.8784 9371.272929 -2.62505
9478.631246 9355.048283 -6.265603
9474.980775 9339.909635 -12.264719
9479.456686 9318.600561 -4.605955
9478.723075 9301.308652 -5.703046
9479.929197 9282.601857 -3.540422
9480.689679 9264.280282 -2.127026
9477.171683 9249.141841 -7.90374
9477.031611 9231.545005 -8.003989
9477.880797 9213.2736 -6.442103
9479.722328 9194.344203 -3.213042
9475.82537 9179.530794 -9.626553
9484.950006 9155.589128 5.839251
9475.806638 9144.473009 -9.389369
9478.253589 9125.311424 -5.144149
9475.42139 9109.811668 -9.7687
9478.414468 9090.38306 -4.606563
9479.990411 9071.974945 -1.825648
9476.753168 9056.806885 -7.130851
9477.902875 9038.757567 -5.066387
9478.112392 9021.367419 -4.581566
9479.32257 9003.370826 -2.416048
9481.049777 8985.094102 0.617649
9478.426449 8969.613506 -3.656499
9479.237615 8951.990346 -2.161872
9477.151377 8936.19901 -5.533921
9478.506984 8918.309783 -3.12523
9478.915431 8901.042254 -2.307576
9477.395602 8884.965726 -4.728539
9478.838286 8867.145827 -2.174298
9475.900542 8851.942787 -6.976588
9476.418413 8834.728854 -5.975757
9476.473599 8817.816759 -5.752089
9483.435058 8797.013921 6.068421
9479.124806 8782.65595 -1.038775
9478.279565 8766.349105 -2.327597
9474.996792 8751.399079 -7.709231
9479.130747 8732.40871 -0.637962
9475.896911 8717.453106 -5.937443
9476.14132 8700.638817 -5.397092
9474.930084 8684.618391 -7.300733
9478.195106 8666.288292 -1.689582
9476.046615 8650.799026 -5.166907
9477.388973 8633.541599 -2.784002
9477.272387 8617.056185 -2.850445
9477.67803 8600.336512 -2.040378
9477.613923 8583.876092 -2.01899
9476.085106 8568.145862 -4.456282
9471.596456 8553.830939 -11.861586
9475.586953 8535.499265 -5.034879
9475.127235 8519.304887 -5.677863
9475.689372 8502.660165 -4.6059
9476.776745 8485.807722 -2.652606
9476.89325 8469.424144 -2.328889
9476.536157 8453.272768 -2.800089
9477.203543 8436.694344 -1.552136
9477.397263 8420.34843 -1.09922
9477.61665 8404.015377 -0.603359
9475.858922 8388.529073 -3.425252
9475.62726 8372.416401 -3.6864
9477.425829 8355.500387 -0.541068
9476.743653 8339.614381 -1.558381
9477.089624 8323.336511 -0.85068
9476.958827 8307.266591 -0.943024
9473.837656 8292.352857 -6.052503
9477.274552 8274.963045 -0.15941
9474.702898 8259.849117 -4.346914
9478.697386 8242.339417 2.481042
9476.676927 8227.043009 -0.781822
9475.182916 8211.555608 -3.161474
9473.711962 8196.060099 -5.502398
9475.291069 8179.528805 -2.72708
9478.915466 8162.350334 3.478697
9473.477742 8148.201716 -5.515979
9470.585359 8133.186138 -10.241016
9475.802976 8115.588701 -1.363594
9476.498155 8099.471208 -0.07166
9472.664208 8084.756243 -6.375804
9475.938474 8067.888664 -0.758603
9479.240035 8051.065961 4.903994
9476.48821 8036.033676 0.414736
9475.785833 8020.407222 -0.637532
9474.599798 8004.919728 -2.500853
9475.466337 7988.878648 -0.922271
9474.327296 7973.390099 -2.706809
9472.70353 7958.026499 -5.304079
9472.118437 7942.394859 -6.159708
9474.606027 7926.011543 -1.863473
9473.560691 7910.519626 -3.490919
9477.115689 7893.946701 2.594485
9473.574344 7879.052826 -3.217742
9475.143759 7862.98761 -0.461588
9475.210648 7847.278615 -0.22453
9478.866426 7830.820638 6.028856
9474.396769 7816.090469 -1.339208
9471.986397 7800.906452 -5.254933
9473.67652 7784.906432 -2.297007
9473.861446 7769.219932 -1.862315
9475.090277 7753.353736 0.322067
9471.751105 7738.321542 -5.150234
9472.006344 7722.642623 -4.597776
9472.285243 7706.971329 -4.005734
9475.651793 7690.816597 1.761089
9475.467937 7675.257324 1.577301
9474.285555 7659.852416 -0.279933
9470.570775 7644.804089 -6.38101
9468.411163 7629.506845 -9.875638
9470.875471 7613.582772 -5.621547
9472.341447 7597.8194 -3.040633
9469.227973 7582.630319 -8.133509
9470.229309 7566.940226 -6.331283
9472.789397 7551.097677 -1.917378
9470.767724 7535.76302 -5.180607
9467.233041 7520.558344 -10.978702
9471.39965 7504.611132 -3.873478
9472.006653 7489.022955 -2.732393
9472.637062 7473.444413 -1.552177
9469.705692 7458.143788 -6.339094
9470.894619 7442.529164 -4.223218
9469.033284 7427.125339 -7.217302
9471.805863 7411.436347 -2.448673
9471.527794 7395.940971 -2.790512
9470.247935 7380.491925 -4.810417
9469.503504 7365.009315 -5.933365
9468.782116 7349.519945 -7.017665
9472.696882 7333.888586 -0.336649
9471.509303 7318.424405 -2.201877
9469.832097 7302.957261 -4.88706
9471.766384 7287.42806 -1.523568
9472.698612 7271.928655 0.161534
9468.527248 7256.445669 -6.700495
9469.505686 7240.940269 -4.937958
9469.994591 7225.44129 -3.9953
9469.481247 7209.931901 -4.731029
9468.478352 7194.405921 -6.286483
9470.574676 7178.953126 -2.652255
9472.694035 7163.524238 1.020351
9468.17198 7147.86106 -6.427568
9463.673417 7132.146419 -13.835742
9468.425231 7116.842847 -5.755579
9466.536295 7101.221026 -8.794163
9467.745976 7085.766262 -6.644831
9469.491151 7070.358966 -3.599094
9469.209407 7054.821386 -3.946815
9467.413677 7039.158992 -6.829026
9467.690903 7023.647698 -6.240872
9471.06505 7008.4146 -0.468534
9469.339268 6992.728981 -3.233459
9465.588445 6976.814911 -9.387916
9465.446567 6961.240007 -9.501189
9466.864081 6945.83476 -7.004316
9467.280552 6930.322603 -6.183058
9468.232043 6914.876656 -4.466346
9463.065152 6898.642886 -12.98983
9466.11043 6883.456699 -7.768763
9466.619973 6867.941772 -6.791693
9465.618195 6852.204867 -8.343885
9466.174368 6836.687901 -7.288752
9465.731143 6821.012702 -7.906072
9463.266853 6804.994438 -11.90536
9461.338184 6789.031863 -15.008113
9463.521361 6773.760871 -11.230295
9465.726987 6758.511328 -7.415079
9465.401641 6742.806496 -7.834881
9468.163243 6727.684016 -3.089639
9466.863686 6711.779844 -5.139421
9465.078159 6695.753046 -8.002111
9466.377934 6680.343741 -5.702796
9465.150774 6664.39586 -7.631078
9465.477436 6648.768037 -6.959757
9469.395103 6633.94893 -0.281058
9465.691763 6617.392031 -6.351447
9467.617022 6602.123952 -3.005925
9465.491651 6585.878617 -6.436244
9465.427403 6570.113001 -6.418658
9465.387052 6554.341629 -6.361043
9465.879207 6538.697585 -5.412692
9465.886512 6522.917999 -5.275279
9464.901347 6506.855647 -6.797745
9464.44895 6490.918159 -7.429021
9464.528753 6475.11432 -7.170126
9465.140163 6459.452907 -6.022125
9465.775176 6443.792462 -4.834647
9463.897946 6427.367608 -7.848382
9465.088226 6411.851111 -5.732233
9465.288242 6396.024041 -5.272053
9464.499358 6379.869298 -6.465424
9464.241776 6363.863576 -6.770257
9466.032897 6348.518014 -3.649426
9465.317806 6332.334207 -4.719133
9465.638923 6316.481656 -4.056184
9464.973645 6300.273457 -5.042376
9460.798362 6282.797954 -11.89675
9461.699671 6267.085547 -10.263426
9465.14726 6252.298996 -4.373259
9463.069266 6235.481256 -7.720695
9460.514287 6218.441765 -11.865236
9463.023844 6203.297503 -7.543311
9463.038435 6187.193201 -7.392137
9462.071674 6170.682965 -8.881267
9461.130997 6154.153385 -10.32662
9461.72409 6138.218481 -9.208152
9461.337089 6121.866693 -9.727798
9458.967924 6104.660462 -13.560254
9462.646542 6089.976336 -7.284569
9466.847237 6075.540802 -0.136594
9460.546671 6056.548035 -10.538986
9466.296178 6042.794799 -0.802756
9459.054029 6023.259873 -12.777855
9462.847841 6008.634933 -6.310043
9463.164229 5992.431944 -5.653424
9460.010178 5974.591576 -10.795841
9462.874587 5959.535507 -5.881283
9463.267367 5943.308381 -5.096749
9464.183783 5927.316885 -3.437222
9462.634835 5910.103769 -5.896834
9461.114071 5892.862529 -8.3091
9461.113389 5876.343189 -8.181478
9464.120306 5861.329567 -3.029028
9462.680089 5844.038776 -5.306239
9463.252962 5827.754104 -4.220171
9458.397622 5808.591432 -12.202041
9458.034841 5791.73843 -12.678579
9462.154348 5777.271061 -5.667579
9461.347668 5760.142462 -6.885495
9460.56893 5742.992886 -8.056535
9459.324356 5725.547292 -10.005458
9459.095511 5708.631497 -10.257612
9464.810286 5695.070485 -0.582577
9464.631154 5678.158616 -0.751676
9465.95596 5662.091338 1.591112
9463.863175 5644.002188 -1.773663
9468.188818 5629.671942 5.580739
9459.770117 5607.714571 -8.347705
9464.146465 5593.384192 -0.908564
9461.681728 5574.886012 -4.893396
9460.717849 5557.255736 -6.371686
9461.250928 5540.518515 -5.350159
9455.457401 5519.761767 -14.89221
9457.514835 5503.907548 -11.325002
9457.645193 5486.806073 -10.975336
9462.189586 5472.543995 -3.255948
9454.58132 5450.327724 -15.826073
9456.74434 5434.459121 -12.082319
9461.361301 5420.22622 -4.241921
9458.715701 5401.112172 -8.525817
9460.953763 5385.25993 -4.656816
9459.824549 5367.084188 -6.40882
9461.146437 5350.561255 -4.069067
9459.109925 5331.665806 -7.335083
9459.521676 5314.43998 -6.514229
9458.031636 5295.825816 -8.867506
9455.609935 5276.484894 -12.775445
9458.03767 5260.598779 -8.58928
9458.084797 5242.961415 -8.376279
9459.122319 5226.018912 -6.510231
9459.227392 5208.35587 -6.200216
9456.964965 5188.874102 -9.840906
9458.568506 5172.257317 -7.029849
9457.328438 5153.445232 -8.963893
9458.988157 5136.815085 -6.058884
9460.674389 5120.186633 -3.109604
9458.573413 5100.566292 -6.47945
9452.698469 5077.889508 -16.145762
9457.331286 5063.480102 -8.279581
9458.658687 5046.429305 -5.928423
9455.268979 5025.525842 -11.446995
9455.235839 5007.279732 -11.365245
9456.180667 4989.795787 -9.651781
9455.736205 4971.125146 -10.255817
9459.101823 4955.596612 -4.503792
9456.359785 4934.908735 -8.940089
9458.837504 4918.582499 -4.669056
9457.577408 4899.035774 -6.632736
9455.412793 4878.643026 -10.104757
9457.978177 4862.296745 -5.687158
9455.414291 4841.431724 -9.824447
9455.697597 4823.004101 -9.212693
9453.675668 4802.475155 -12.445288
9454.492566 4784.421142 -10.94313
9449.746038 4761.289374 -18.71865
9453.425228 4745.731651 -12.442742
9454.33817 4727.63007 -10.779809
9456.674867 4710.80874 -6.742617
9455.329361 4690.531035 -8.845277
9454.947223 4671.088103 -9.341233
9455.987073 4652.933906 -7.465956
9455.672765 4633.448479 -7.8483
9456.315606 4614.824682 -6.634555
9455.609602 4594.849202 -7.669386
9456.319345 4576.18946 -6.343638
9456.60253 4557.06494 -5.728801
9455.085886 4536.107174 -8.114087
9454.981904 4516.478852 -8.144065
9448.13884 9960.8697 -8.943951
9447.712002 9941.717291 -9.511642
9450.085628 9919.903332 -5.422342
9449.269473 9901.248568 -6.638078
9448.948425 9882.166372 -7.030689
9450.976717 9860.909172 -3.516903
9448.408273 9844.060759 -7.647125
9445.867064 9827.206127 -11.73207
9448.933761 9805.172897 -6.492682
9452.974827 9782.339991 0.366176
9448.666792 9767.239241 -6.65696
9451.852844 9745.341498 -1.220536
9449.001996 9728.968448 -5.821109
9447.581829 9711.331382 -8.043196
9447.129143 9692.869489 -8.657044
9446.239026 9674.836585 -9.998265
9449.141203 9653.535563 -5.035676
9446.434442 9637.175807 -9.397137
9447.52485 9617.569593 -7.446879
9445.81861 9600.408293 -10.145444
9447.921779 9580.054155 -6.512423
9449.116306 9560.537578 -4.390061
9445.60755 9544.994333 -10.084962
9444.019924 9527.86662 -12.5869
9446.260837 9507.632364 -8.726218
9448.063611 9487.829275 -5.594108
9448.473897 9469.215987 -4.776454
9443.671781 9454.812798 -12.620845
9448.437462 9432.818034 -4.566034
9446.076406 9416.523582 -8.354161
9445.655103 9398.731827 -8.919147
9445.743022 9380.584572 -8.638195
9444.902782 9363.191239 -9.899618
9448.893788 9342.163798 -3.134195
9448.597651 9324.454549 -3.492119
9447.368725 9307.478136 -5.399927
9445.685572 9290.862252 -8.062436
9446.923551 9272.124622 -5.872176
9448.677504 9253.068149 -2.825081
9443.696402 9238.921526 -10.966484
9445.026781 9220.247496 -8.623404
9445.905402 9201.948527 -7.03105
9447.30078 9183.336979 -4.580621
9445.329588 9167.117955 -7.722337
9448.244899 9147.550234 -2.74787
9444.383016 9132.674725 -9.030041
9446.875099 9113.497201 -4.759087
9446.475749 9096.321026 -5.290627
9448.057197 9077.863336 -2.5327
9448.204963 9060.401565 -2.156015
9445.936329 9044.546791 -5.792316
9447.119144 9026.476788 -3.69708
9448.332968 9008.43596 -1.550635
9446.634385 8992.281839 -4.24055
9445.452013 8975.817279 -6.07332
9449.210738 8956.314579 0.298126
9445.625418 8941.388204 -5.524755
9447.970616 8922.854817 -1.500902
9446.405218 8906.728367 -3.970082
9446.838248 8889.4274 -3.12143
9449.275076 8870.98546 1.05369
9445.813409 8856.03362 -4.563849
9446.330567 8838.780638 -3.576029
9442.915481 8823.801819 -9.116079
9445.468324 8805.450894 -4.749247
9445.573267 8788.523591 -4.446178
9443.72024 8772.704773 -7.393293
9446.36254 8754.443489 -2.878802
9442.57271 8739.706614 -9.040777
9445.272811 8721.495704 -4.430823
9447.506345 8703.590645 -0.595623
9443.789277 8688.836133 -6.636771
9443.086086 8672.51334 -7.675822
9446.40235 8654.165549 -2.044364
9443.255589 8639.129742 -7.138898
9442.630572 8622.830444 -8.04849
9445.5338 8604.819505 -3.103261
9440.956628 8590.490424 -10.571307
9445.920402 8571.568733 -2.207371
9444.398444 8555.793502 -4.605755
9441.394963 8540.714848 -9.462336
9444.942165 8522.609009 -3.449846
9446.007686 8505.696306 -1.555298
9445.089058 8489.708944 -2.952886
9448.221275 8471.941247 2.370111
9445.843952 8456.637923 -1.447725
9445.001094 8440.667815 -2.719816
9448.721431 8422.771816 3.578072
9443.893939 8408.520393 -4.304329
9445.650023 8391.515267 -1.265318
9447.433938 8374.540348 1.819593
9442.673125 8360.231578 -5.951797
9442.484859 8344.080136 -6.138373
9445.358968 8326.754267 -1.245611
9447.248896 8309.859054 2.014417
9445.111938 8294.525596 -1.404664
9444.011888 8278.800646 -3.103918
9444.965294 8262.330223 -1.397566
9442.391185 8247.159228 -5.541519
9443.394968 8230.709034 -3.751819
9445.441353 8213.925103 -0.233316
9443.446842 8198.566573 -3.416067
9441.475115 8183.194315 -6.560944
