# .PCD v0.7 - Point Cloud Data file format
VERSION 0.7
FIELDS x y z
SIZE 4 4 4
TYPE F F F
COUNT 1 1 1
WIDTH 1385
HEIGHT 1
VIEWPOINT 0 0 0 1 0 0 0
POINTS 1385
DATA ascii
6979.804088 8689.735204 734.591851
6966.355882 8689.111461 709.05311
6948.815156 8693.114031 675.702588
6937.778893 8689.319661 654.771826
6923.872492 8688.713414 628.36304
6907.90159 8690.303014 598.014086
6895.19062 8687.975237 573.890517
6877.125971 8691.549156 539.548128
6866.440844 8686.6005 519.294112
6849.156325 8688.889991 486.444232
6834.736515 8687.785853 459.06433
6819.473969 8687.430101 430.077574
6800.05314 8691.420541 393.155549
6787.237195 8688.00307 368.841547
6771.504615 8687.570978 338.962428
6753.258199 8689.62605 304.287855
6725.823677 8701.180882 252.080893
6690.82972 8720.309275 185.451875
6619.839074 8776.519088 50.138029
7063.75122 8977.319526 936.545574
7048.258892 8981.603036 907.441806
7065.833052 8940.352267 940.757228
7067.714757 8920.847997 944.44913
7068.051795 8903.531105 945.224631
7065.250106 8890.502477 940.075566
7069.612939 8867.918168 948.448305
7065.66963 8856.493039 941.143893
7067.71785 8837.162542 945.146837
7068.605086 8819.448258 946.957995
7067.525148 8804.368526 945.05628
7065.268495 8790.851262 940.933851
7067.847951 8771.143651 945.936727
7063.631123 8760.208352 938.114901
7064.260099 8743.117976 939.436304
7067.340153 8723.010229 945.381781
7065.205516 8709.531348 941.488006
7054.590001 8706.606076 921.594128
7050.859629 8695.065254 914.689938
7039.020245 8693.454785 892.48888
7029.202714 8689.241493 874.102978
7015.304008 8689.854938 848.019646
7001.386536 8690.316042 821.90195
6990.313318 8687.211431 801.15084
6977.59274 8685.93058 777.293815
6961.165718 8688.856105 746.44735
6948.41179 8687.27784 722.529872
6931.939634 8689.858986 691.601595
6919.978031 8687.032819 669.181313
6904.289644 8688.329559 639.7341
6889.82028 8688.042989 612.587355
6876.162264 8686.663298 586.97214
6860.829926 8686.992985 558.200817
6848.386867 8683.91895 534.879253
6828.443186 8688.981496 497.416779
6812.634449 8689.248559 467.752181
6799.310867 8686.61425 442.774827
6783.885047 8686.093591 413.835652
6768.441763 8685.402506 384.864786
6746.69134 8691.237693 344.005953
6716.506982 8705.702153 287.25072
6659.347916 8748.054812 179.652347
7035.059915 9009.620367 925.648832
7045.546921 8977.942697 945.353773
7043.802181 8963.236141 942.237561
7047.648363 8940.970483 949.551202
7043.970411 8928.990389 942.827944
7044.69962 8911.101555 944.325489
7044.261815 8894.842345 943.645851
7043.852494 8878.601063 943.018668
7042.668455 8863.432074 940.946035
7045.933148 8842.493683 947.170398
7043.599617 8828.936991 942.953336
7041.690495 8814.853297 939.527365
7045.868109 8793.000912 947.452041
7042.394443 8781.013665 941.107655
7045.42877 8760.799375 946.898914
7041.593152 8749.320708 939.879333
7045.508474 8728.166731 947.311786
7040.085121 8718.705962 937.331333
7040.79953 8701.656244 938.794718
7032.131575 8696.144552 922.765552
7020.592305 8694.031944 901.383873
7006.577926 8694.769089 875.389489
6993.778501 8693.876938 851.661142
6981.376207 8692.357562 828.674306
6968.548168 8691.194054 804.895022
6956.119065 8689.408178 781.860695
6942.020999 8689.420825 755.716803
6927.490573 8689.760863 728.768513
6917.095479 8685.167813 709.528901
6898.789863 8689.49144 675.547265
6883.788037 8689.831007 647.724986
6870.018932 8688.598172 622.201076
6855.399203 8688.150552 595.093477
6842.017997 8686.149981 570.295291
6825.688372 8687.240191 540.004215
6809.337265 8688.150259 509.675112
6792.964402 8688.879946 479.307037
6777.834427 8688.066147 451.256139
6756.780708 8693.410588 412.17019
6734.847632 8699.415624 371.448115
6691.719385 8727.497248 291.241796
6576.871032 8830.091826 77.430479
6987.573238 9067.921472 880.572534
6998.845579 9034.879566 901.497674
7018.987721 8990.009907 938.775091
7020.815668 8970.367034 942.282495
7021.478022 8952.390049 943.640101
7020.565495 8936.594975 942.093685
7025.722204 8912.78462 951.735871
7024.875655 8897.050676 950.309876
7023.247654 8882.390516 947.44271
7017.188425 8873.537975 936.40746
7019.658269 8853.603021 941.093808
7020.947593 8835.288745 943.603075
7020.641938 8819.0939 943.172373
7018.325373 8805.507255 939.034551
7021.751238 8784.698823 945.480131
7022.352631 8767.544481 946.719554
7020.524297 8753.481528 943.480682
7022.416309 8734.846887 947.097312
7020.227684 8721.310528 943.193944
7018.472191 8707.265396 940.088542
7010.544384 8700.725913 925.60957
7000.96291 8696.101805 908.084191
6990.133994 8692.867079 888.261625
6978.881986 8690.014519 867.660161
6962.630985 8692.927881 837.849914
6952.185015 8688.836159 818.735873
6935.058323 8692.400228 787.315568
6924.589212 8688.054651 768.161183
6906.999738 8691.763368 735.891196
6892.316108 8691.935316 708.976039
6882.232539 8686.725138 690.535171
6865.837303 8688.498035 660.469731
6853.630517 8685.393872 638.12022
6835.929981 8688.235621 605.653675
6821.160448 8687.629624 578.587124
6804.257573 8689.174946 547.592978
6785.636554 8692.372576 513.436478
6766.563064 8695.821411 478.448715
6748.735545 8697.695325 445.757228
6724.071393 8706.600134 400.478452
6966.678286 9071.849071 885.369264
6974.022375 9044.264136 898.891839
6984.654083 9012.431967 918.404272
6997.782863 8977.497454 942.465431
6996.417674 8962.189095 940.112395
6998.729498 8942.048684 944.458783
6998.642492 8925.171423 944.433817
6996.550358 8910.979029 940.754573
7000.192023 8889.361072 947.522438
6997.747544 8875.726634 943.200586
6999.828293 8856.306877 947.122862
6997.43466 8842.685921 942.892933
6999.993549 8822.813713 947.685214
6998.063219 8808.691918 944.298719
6997.805152 8792.507165 943.958211
6995.510276 8778.905401 939.907115
6997.788735 8759.683456 944.186312
6995.958881 8745.589864 940.981389
7000.796084 8723.409293 949.919688
6993.615141 8715.891625 936.968099
6994.355467 8698.801898 938.443779
6979.264857 8700.660077 911.087856
6977.113799 8687.001704 907.297614
6957.811751 8693.542807 872.274649
6946.444641 8690.556106 851.70297
6931.706815 8691.354585 824.994581
6920.315969 8688.11428 804.38191
6901.749309 8692.96188 770.70452
6891.174345 8688.4843 751.579712
6877.210121 8687.719876 726.28542
6863.653558 8686.332547 701.734219
6847.536409 8687.636274 672.522915
6834.371982 8685.477555 648.688352
6814.384621 8690.656385 612.434375
6800.758631 8688.643969 587.762551
6783.703401 8690.184835 556.849643
6766.197183 8691.999557 525.117211
6740.52868 8702.305505 478.529979
6940.115928 9064.055441 883.261625
6958.558545 9021.779951 916.592415
6970.984518 8987.888417 939.091165
6972.453829 8968.752847 941.86823
6973.141529 8950.73366 943.237716
6974.683826 8931.67623 946.144564
6972.974423 8916.921675 943.199273
6974.584715 8897.928043 946.227475
6974.168432 8881.614752 945.608204
6970.888359 8868.997354 939.835368
6975.080214 8846.951257 947.507019
6974.754588 8830.701953 947.049535
6974.458135 8814.471062 946.644152
6976.272026 8795.681775 950.035054
6973.117622 8783.091032 944.487028
6974.577661 8764.869945 947.240303
6973.560854 8749.735337 945.537239
6973.408553 8733.599465 945.389188
6971.604991 8719.494145 942.270284
6971.086317 8703.888063 941.462168
6966.38094 8693.27527 933.123513
6949.024498 8697.486564 902.029825
6937.981068 8694.119345 882.292451
6925.235233 8692.601461 859.494257
6912.9 8690.46384 837.435741
6899.703354 8689.169963 813.828876
6884.363991 8690.152181 786.370136
6867.724767 8692.411716 756.574944
6851.060623 8694.492614 726.737085
6839.07709 8691.170087 705.316773
6821.086793 8694.338454 673.09699
6810.362801 8689.325303 653.944069
6794.907176 8689.344164 626.284427
6776.419904 8692.451977 593.175599
6762.215137 8690.737846 567.768196
6740.656801 8696.686584 529.141529
6919.177324 9067.965272 888.309788
6924.632936 9043.112901 898.15036
6946.193086 8997.188925 936.643539
6949.724793 8975.311053 943.057703
6948.757469 8959.413227 941.466756
6951.129577 8939.245804 945.816398
6952.712818 8920.194799 948.761826
6950.179142 8906.489129 944.382956
6952.245309 8886.969575 948.186192
6951.431496 8871.175444 946.866224
6950.227822 8855.916512 944.852094
6951.561182 8837.543399 947.350455
6954.187828 8817.654863 952.148328
6951.814541 8804.004699 948.052965
6955.773673 8782.654428 955.219336
6954.297946 8768.008735 952.719296
6949.890952 8756.92263 945.006182
6946.344341 8744.795096 938.823327
6950.017652 8724.096822 945.4792
6943.971796 8714.973102 934.851528
6939.634846 8703.807211 927.263203
6935.738517 8692.114975 920.458236
6920.340918 8693.704227 893.204086
6906.202875 8693.660086 868.19091
6894.614686 8690.54237 847.712133
6880.874074 8689.734158 823.408127
6864.541359 8691.679749 794.49672
6851.195039 8690.091395 770.895874
6835.681267 8690.752926 743.443205
6820.146819 8691.251389 715.955431
6804.592322 8691.5858 688.433439
6788.585055 8692.226735 660.107681
6766.48787 8699.24053 620.959353
6746.522068 8703.688734 585.601499
6894.438012 9060.083313 885.415742
6912.835591 9018.423582 917.920763
6928.009864 8981.325885 944.751092
6927.859722 8964.32567 944.615092
6927.741434 8947.3475 944.534745
6925.982175 8932.522062 941.566544
6926.342573 8915.0476 942.327484
6927.575083 8896.544073 944.622091
6928.843851 8878.078402 946.980137
6927.621094 8862.78741 944.954268
6926.002672 8848.024827 942.232149
6930.750989 8825.496966 950.709467
6931.311699 8808.201531 951.819415
6937.42026 8784.266116 962.687329
6932.105578 8774.207026 953.461942
6927.653862 8763.091156 945.75472
6927.055041 8747.395481 944.823574
6925.202236 8733.222428 941.687115
6924.656749 8717.548515 940.849272
6924.996317 8700.89322 941.567511
6918.925287 8691.693213 931.012129
6907.701579 8688.357209 911.396385
6893.453749 8688.341546 886.463605
6877.461562 8690.12985 858.465007
6864.471713 8688.354192 835.746642
6847.139102 8691.273165 805.394024
6834.116267 8689.207883 782.620377
6820.212092 8687.964745 758.298192
6804.987508 8688.004122 731.655659
6787.129569 8690.719275 700.385136
6753.095422 8710.631046 640.67922
6868.631857 9069.428649 883.810014
6884.249823 9031.525053 911.099608
6898.282393 8995.98868 935.630074
6902.313918 8973.545006 942.766953
6900.076662 8959.201523 939.002513
6900.394676 8941.657822 939.681054
6903.281803 8920.959624 944.826076
6904.094434 8902.956573 946.363351
6903.245164 8887.088329 945.010782
6901.57409 8872.278216 942.228987
6904.186376 8852.266498 946.893585
6902.574004 8837.487848 944.212946
6909.959677 8811.88775 957.174352
6916.118477 8787.934588 968.001671
6912.038254 8776.326938 961.029763
6906.685724 8766.21715 951.846157
6903.065864 8754.044634 945.674588
6899.894738 8741.347687 940.282888
6899.33366 8725.633413 939.427528
6899.232798 8709.435821 939.371686
6897.861929 8694.743873 937.10827
6884.364836 8693.857409 913.770746
6868.24412 8695.775547 885.875005
6859.501501 8689.234295 870.802093
6845.526196 8688.434633 846.636802
6828.913748 8690.388964 817.89046
6813.151893 8691.209837 790.623325
6799.998509 8689.001927 767.890003
6770.591573 8704.237705 716.917505
6744.637804 8715.370648 671.947377
6844.86281 9076.048597 885.994461
6849.204811 9052.766213 893.584675
6865.023868 9014.972802 920.89957
6874.575873 8985.452915 937.44123
6878.674569 8963.026269 944.60941
6878.139352 8946.531063 943.813197
6881.472469 8925.279925 949.664241
6879.29671 8910.952573 946.047647
6880.568686 8892.419932 948.35544
6881.877564 8873.924657 950.726074
6877.638983 8862.232811 943.564114
6882.883138 8839.119416 952.69548
6887.74631 8816.60425 961.171135
6887.476299 8800.323395 960.826603
6885.073283 8786.613767 956.817175
6880.526041 8775.438154 949.123924
6878.598038 8761.198662 945.930497
6877.563517 8745.952181 944.271441
6879.604936 8727.212542 947.895984
6878.19317 8712.501005 945.58848
6872.872984 8702.252691 936.567179
6861.873817 8698.371497 917.791617
6846.921205 8698.796385 892.226769
6836.341205 8694.191216 874.172974
6824.436261 8690.940685 853.844375
6808.115597 8692.400195 825.933336
6793.096082 8692.25121 800.258096
6755.068129 8716.784167 735.071671
6841.169417 9004.351484 922.859335
6847.419185 8979.162198 933.598199
6850.720118 8957.797715 939.327218
6854.06673 8936.494903 945.13314
6855.303263 8917.892263 947.353979
6853.123666 8903.53111 943.772424
6853.563259 8886.029612 944.638928
6851.870545 8871.158011 941.883712
6849.769693 8856.807808 938.434912
6855.519365 8833.176805 948.317988
6860.885514 8810.146965 957.54873
6853.211937 8802.516108 944.635401
6853.847631 8785.167123 945.83217
6851.451396 8771.385451 941.880396
6854.779995 8751.059 947.648629
6854.635644 8734.796291 947.519725
6854.961673 8718.055575 948.188769
6852.674185 8704.311568 944.420527
6842.460173 8699.434766 927.194919
6834.011748 8692.500205 912.967307
6820.691773 8690.855226 890.470205
6802.476321 8694.416395 859.66372
6784.231444 8697.789699 828.809052
6751.264588 8716.819993 772.965277
6794.601189 9022.59669 885.414041
6828.166929 8963.733226 941.91674
6830.665885 8943.46379 946.233615
6831.034414 8925.885113 946.971522
6830.131537 8909.910451 945.573477
6831.874401 8890.810429 948.6189
6831.908553 8873.834455 948.793889
6831.537863 8857.399828 948.288465
6832.51281 8839.436898 950.042637
6833.962436 8820.993988 952.593084
6831.049376 8807.69536 947.817316
6830.801885 8791.337039 947.51756
6830.14368 8775.503539 946.527359
6830.841207 8758.174813 947.813371
6830.243105 8742.37741 946.923634
6834.111278 8721.615071 953.532287
6828.68876 8711.321643 944.541666
6824.168965 8700.002194 937.067068
6814.758518 8694.04596 921.381941
6803.113663 8690.442684 901.9467
6767.744 8712.447596 842.685487
6738.564533 8727.313035 793.818641
6751.495017 9054.252975 853.189447
6794.878472 8983.520254 925.404066
6803.050714 8956.264533 939.102407
6808.658935 8932.291162 948.538959
6807.301276 8916.8125 946.399915
6803.334957 8904.478809 939.926099
6804.670529 8885.876805 942.261382
6803.397169 8870.420995 940.261693
6804.803219 8851.880352 942.712986
6803.14746 8836.96875 940.077318
6803.292398 8820.01872 940.432743
6804.358016 8802.076439 942.317351
6805.90406 8783.662926 944.999104
6805.703948 8767.299598 944.780111
6805.981117 8750.456043 945.353523
6805.396089 8734.633047 944.494479
6806.632217 8716.842412 946.659738
6801.620364 8705.988185 938.447128
6790.778637 8701.472965 920.552008
6751.564127 8727.590105 855.535328
6742.063238 9025.161049 880.275797
6774.48546 8968.53981 933.65578
6780.564688 8943.981751 943.758191
6776.524534 8931.601352 937.236925
6781.367458 8908.738487 945.307051
6783.152823 8889.596192 948.353999
6776.971445 8879.821425 938.314858
6782.386264 8856.595828 947.322253
6778.032148 8844.740186 940.284408
6779.061531 8826.731795 942.08789
6780.574678 8808.248745 944.685505
6781.227885 8790.815951 945.870223
6780.5668 8774.920638 944.89624
6782.186623 8756.537805 947.667387
6781.137313 8741.182596 946.055108
6775.597589 8730.79078 937.069319
6765.99777 8724.795356 921.416705
6735.544127 8741.271095 871.524256
6702.695428 9032.26711 858.385561
6704.275052 9012.69197 861.067808
6708.737396 8920.083953 868.890295
6711.001976 8900.225512 872.681499
6711.504484 8882.457738 873.610733
6712.493771 8864.209929 875.329894
6707.637424 8852.5676 867.557633
6709.596237 8833.34781 870.850302
6710.686192 8815.173445 872.731699
6708.174396 8801.017074 868.765373
6705.230842 8787.349811 864.097896
6150.092919 9049.914872 395.722078
6166.828713 9014.763928 420.448494
6151.452962 9010.534508 397.936766
6124.157983 9017.452843 357.893519
6139.102277 9040.914408 423.499547
6156.970738 9004.861207 449.614541
6150.483836 8992.177206 440.276365
6134.51858 8988.383165 417.14212
6107.029173 8995.201886 377.235192
6067.460124 9012.92104 319.747589
6017.764917 9039.505185 247.525082
5877.941525 9147.911647 44.132145
6139.3022 9002.561356 467.213967
6130.260971 8992.253952 454.29317
6118.71315 8984.228948 437.762032
6099.101731 8983.590352 409.617455
6084.516626 8978.124586 388.71297
6066.89077 8975.307701 363.430185
6036.081804 8984.290207 319.161191
5993.04427 9003.955701 257.282455
5924.007246 9046.393298 157.963838
6126.580907 8995.035018 493.311515
6121.031301 8981.459731 485.50386
6097.757258 8984.307888 452.441112
6078.511612 8983.202118 425.119612
6063.821701 8977.739425 404.290418
6046.06898 8974.925697 379.098251
6032.891964 8967.816338 360.425701
6011.539234 8967.913325 330.106034
5969.180543 8986.459062 269.861062
5855.501362 9067.439014 108.014214
6108.347178 8994.156474 508.373569
6093.080037 8989.568496 486.9349
6077.803186 8984.850743 465.483291
6059.45061 8982.807822 439.694092
6044.663727 8977.347927 418.935004
6028.844322 8972.687356 396.7207
6014.556524 8966.511091 376.667158
5987.919685 8971.189002 339.196613
5946.817409 8988.353797 281.325308
5813.799848 9085.601881 93.819171
6089.089852 8992.334188 526.474886
6081.927951 8980.192803 516.57954
6059.356817 8982.109386 485.188216
6038.299335 8982.420481 455.909624
6028.047137 8972.778126 441.705314
6009.536645 8970.456423 415.981581
5994.113486 8965.212851 394.565239
5970.392018 8967.155628 361.574811
5929.513035 8983.89006 304.653424
6125.426489 8977.62759 618.115256
6086.305009 8995.419397 564.190609
6074.965879 8987.178414 548.628038
6058.460678 8983.575385 525.933895
6037.283789 8984.063987 496.790075
6025.931752 8975.48012 481.211567
6004.716862 8975.642978 452.01728
5990.757378 8969.143866 432.840349
5977.315771 8962.068852 414.379542
5951.873764 8965.402333 379.351822
5911.764839 8981.23854 324.07813
6085.362634 8978.286536 604.0398
6074.496757 8969.662716 589.282847
6043.341389 8979.392621 546.799327
6027.241354 8975.202675 524.890852
6010.087055 8971.812132 501.542933
5991.349908 8969.670767 476.03261
5971.024452 8968.755203 448.35272
5956.444569 8962.603151 428.525076
5930.305428 8966.391882 392.903204
5888.347166 8983.588081 335.668645
6032.893894 8970.483492 575.318861
6021.422277 8962.110487 559.899531
6000.493491 8962.066068 531.69432
5975.854161 8965.095008 498.473167
5956.978414 8962.818475 473.045246
5943.365383 8955.780375 454.733127
5923.404566 8954.120431 427.840062
5976.135089 8966.811262 538.831578
5967.754773 8955.397043 527.70213
5945.592698 8955.950039 498.124155
5928.717416 8951.710694 475.624441
5901.186256 8956.477608 438.8607
5864.550828 8968.730387 389.911942
5917.288676 8962.039217 505.019042
5908.847321 8950.407454 493.930753
5883.270034 8953.35324 460.153634
2835.679405 4686.149538 41.027957
2643.324483 6038.931179 41.733283
2574.787136 6151.448441 41.552926
2505.46352 6841.969476 41.127783
2505.797833 6334.596353 41.710478
2503.609277 4701.36038 41.304483
2297.59603 6995.664093 42.13025
2297.707984 4691.848909 43.467059
2302.419087 4668.535337 46.669848
2296.63956 4642.629881 42.770762
2227.507578 6762.533245 42.867098
2224.030316 5431.792226 41.204933
2229.911095 4656.270421 45.534617
2153.213881 6933.953761 41.290157
2156.689309 6909.63569 43.605125
2153.84421 6861.908299 41.740869
2151.776721 4692.320653 41.36005
2155.701987 4668.452604 43.9733
2155.599993 4643.608049 43.916964
2152.294405 4617.946237 41.73715
2078.831816 7059.834708 42.149373
2081.175184 7035.338249 43.69571
2077.747323 7011.463873 41.457712
2078.566821 6962.945343 42.014904
2078.26276 4705.412715 42.74015
2092.838717 4683.870573 52.307267
2086.956125 4657.533929 48.460345
2085.241546 4632.133577 47.346714
2076.218939 4604.899793 41.441074
2005.746082 7065.514539 41.18151
2007.591881 4694.053443 43.247964
2004.953878 4668.299819 41.545621
2008.141307 4643.879706 43.623094
2005.633402 4618.081587 42.004892
1926.980164 7293.762625 42.414118
1930.275246 7194.42667 44.559763
1924.911755 7047.135203 41.16562
1925.14226 6825.995589 41.383766
1924.276935 5945.701541 41.109368
1925.513108 5798.829469 41.948834
1926.405005 5749.857767 42.536957
1928.850019 5627.330621 44.144745
1934.477547 5504.962103 47.794592
1936.452694 5480.571408 49.069582
1946.025665 5457.090552 55.219086
1948.955973 5432.84427 57.106949
1955.292663 5409.034542 61.180498
1968.380106 5386.133205 69.584914
1968.138083 5361.524526 69.437034
1947.053025 5334.038079 55.917548
1954.463143 5310.397839 60.679431
1940.204293 5283.665787 51.53951
1935.20481 5258.186007 48.339486
1927.536204 5157.724312 43.451265
1926.123787 4982.861115 42.601009
1924.3912 4957.495876 41.497295
1928.821718 4706.721744 44.419861
1933.578804 4682.504707 47.480092
1933.438693 4657.154134 47.398139
1936.665264 4632.568358 49.476081
1928.40306 4605.218087 44.183475
1848.650851 7501.780552 43.015012
1850.745615 7476.337676 44.351159
1845.429661 7351.96211 41.012109
1845.617717 7177.33761 41.178991
1845.322123 6484.841634 41.17997
1847.038614 5794.898562 42.457482
1845.427323 5745.346991 41.448424
1850.468866 5622.058822 44.680709
1863.103885 5598.535916 52.704374
1895.983637 5577.153334 73.571709
1907.0412 5553.684314 80.594321
1920.6757 5530.560224 89.251817
1931.842848 5507.241363 96.343454
1946.424406 5484.381478 105.601832
1954.339449 5460.812841 110.630267
1963.988756 5437.499423 116.7592
1973.693826 5414.244292 122.923154
1980.096018 5390.612694 126.991725
1996.623758 5368.360411 137.484605
2004.813426 5345.067671 142.687241
2016.412304 5322.293099 150.052778
2000.402985 5295.611811 139.902381
1975.247973 5267.455188 123.94935
1934.257351 5236.715199 97.94918
1893.358223 5205.684107 72.00738
1855.063701 5174.759715 47.718694
1844.822917 5122.98145 41.235035
1846.250782 5047.836975 42.161428
1847.613816 4871.443413 43.074386
1845.983255 4744.185705 42.074237
1847.345849 4719.020804 42.945931
1857.895663 4695.905473 49.646162
1857.72087 4670.385526 49.541654
1863.411384 4646.198811 53.159295
1851.769379 4617.936083 45.779813
1777.222758 5691.983219 47.453837
1796.489097 5668.764903 59.55187
1843.676588 5648.218067 89.174497
1862.197808 5625.268972 100.804629
1880.773048 5602.442573 112.468883
1879.146831 5577.677037 111.453672
1899.517397 5555.201434 124.244884
1900.539445 5530.752188 124.89177
1906.681151 5506.871893 128.752417
1922.996528 5484.195272 138.997829
1935.992096 5461.222756 147.159803
1948.198542 5438.230471 154.826771
1946.141088 5413.510126 153.54092
1962.668662 5391.166296 163.919702
1987.664279 5370.047301 179.613197
2000.922992 5347.486596 187.940462
2018.440485 5325.596503 198.940507
2030.961506 5303.094926 206.804613
2039.331544 5280.055273 212.063678
2025.070036 5253.652585 203.118034
1990.722922 5224.041999 181.566479
1923.718805 5189.035613 139.51878
1820.741712 5147.754596 74.893521
1769.922196 5114.304465 43.00373
1768.965527 4732.251771 42.491004
1769.529887 4706.714309 42.85111
1775.982849 4682.474018 46.906797
1779.168055 4657.506451 48.911792
1769.116496 4629.470235 42.608793
1703.139136 5737.762074 50.415045
1752.872654 5716.705695 81.296655
1795.021618 5695.343085 107.469663
1843.144418 5674.785028 137.351655
1851.497425 5650.924982 142.542217
1860.75438 5627.196999 148.293828
1866.681331 5603.196196 151.978046
1865.049438 5578.456672 150.969782
1875.325397 5554.942441 157.35423
1874.660132 5530.301163 156.945448
1889.280021 5507.351678 166.026357
1914.945105 5485.761178 181.965361
1935.585105 5463.73785 194.78416
1941.062428 5439.992233 198.189282
1936.460404 5415.002726 195.336488
1939.523245 5390.955417 197.242557
1959.529945 5369.15929 209.668123
1996.464073 5349.789237 232.60277
2016.559966 5328.309898 245.084068
2033.330135 5306.477686 255.49988
2047.618861 5284.382883 264.375938
2051.001852 5260.734258 266.480297
2045.176488 5235.678612 262.86831
2013.309052 5206.480263 243.088332
1964.6927 5174.354071 212.909689
1842.967514 5129.890856 137.342393
1734.020826 5086.69605 69.708944
1720.235777 5058.976509 61.155147
1738.462283 5036.718378 72.475556
1708.854483 5006.059665 54.098745
1690.709278 4694.222601 42.89042
1698.882521 4670.161311 47.969845
1697.103591 4643.867863 46.869921
1662.686073 5761.413077 72.977858
1726.969954 5741.240553 112.474084
1795.541827 5721.843337 154.604903
1825.902344 5699.699796 173.260347
1838.467041 5676.200949 180.983287
1848.540493 5652.550323 187.175467
1843.381937 5627.522622 184.009522
1844.232036 5603.035818 184.535441
1845.141754 5578.548065 185.097961
1837.626387 5553.173305 180.48399
1860.720965 5531.039709 194.675923
1905.070687 5511.421761 221.924878
1923.168133 5489.078972 233.046677
1926.057266 5465.047368 234.824898
1909.513334 5438.655943 224.664949
1863.386411 5408.429786 196.330747
1855.464623 5382.786123 191.467909
1878.937532 5361.220695 205.891826
1936.313349 5344.400044 241.143456
1997.942263 5328.550693 279.007929
2028.294806 5308.653074 297.658157
2035.010282 5285.499345 301.787094
2053.615154 5264.150485 313.22003
2063.81735 5241.628032 319.491344
2061.403942 5217.185991 318.012135
2036.258898 5189.072899 302.567836
2016.25771 5161.605955 290.283949
2006.456619 5135.682332 284.266656
2004.314413 5110.975697 282.953649
1998.8636 5085.65746 279.608786
1991.795585 5059.99318 275.270149
1946.056299 5027.267639 247.174414
1917.256593 4997.320729 229.485237
1806.093203 4951.681556 161.197572
1700.141817 4906.238704 96.111818
1668.325922 4874.470317 76.569857
1642.487235 4843.639114 60.699919
1620.0982 4813.297542 46.949323
1611.041012 4707.474838 41.400189
1620.88413 4683.567315 47.450845
1615.715409 4656.353481 44.279415
1613.965988 4629.848667 43.208437
1523.594434 7154.349851 41.051423
1529.137379 5804.318075 44.547994
1618.288493 5785.071464 98.679905
1721.120804 5767.429303 161.118091
1787.301629 5747.666453 201.303496
1810.880562 5724.927069 215.621572
1817.457994 5700.916862 219.617798
1825.798613 5677.096189 224.683962
1834.198625 5653.326145 229.786517
1830.725558 5628.48754 227.680468
1826.464392 5603.53791 225.095617
1817.15822 5578.037563 219.447491
1835.162116 5555.307348 230.381439
1877.903054 5535.350681 256.334322
1906.215953 5514.072903 273.526715
1911.605214 5490.349896 276.801447
1920.454125 5467.058176 282.17637
1923.407702 5443.09842 283.972003
1940.019203 5420.848361 294.060278
1943.936142 5397.069083 296.440979
1966.599979 5375.770545 310.203882
1989.308508 5354.619752 323.99409
2003.574738 5332.438132 332.65776
2015.346212 5309.983532 339.807443
2039.045772 5289.33049 354.19918
2048.373616 5266.681571 359.864791
2053.517893 5243.441435 362.990521
2054.481606 5219.568062 363.57817
2058.893672 5196.231425 366.259395
2053.203522 5171.261097 362.8065
2059.426505 5148.213309 366.587223
2088.545521 5129.077219 384.269334
2075.422914 5102.803115 376.304532
2097.870482 5082.704013 389.936162
2093.325372 5057.876379 387.178514
2084.623169 5032.230604 381.897483
2081.054373 5007.463153 379.733163
2064.052406 4980.087711 369.412536
2022.674081 4947.835837 344.291882
1992.354533 4917.457094 325.885837
1960.442426 4886.521716 306.512271
1891.577745 4847.774702 264.703606
1771.51156 4797.857613 191.807707
1580.13966 4731.973699 75.61873
1569.780181 4703.679631 69.331701
1551.097899 4673.462488 57.991451
1538.380251 4644.411447 50.272426
1529.102954 4616.017942 44.641897
1524.096526 4588.510672 41.605193
1438.366098 6877.6269 41.515768
1444.318856 5825.895245 45.143811
1579.072094 5809.14994 126.032337
1704.430644 5792.658174 201.281325
1768.195984 5772.504315 239.558643
1802.056166 5750.486668 259.88491
1811.158059 5726.708894 265.349733
1813.476016 5702.417475 266.742388
1831.244455 5679.474273 277.409295
1850.776218 5656.799752 289.134637
1861.814351 5633.452242 295.761516
1865.218433 5609.42882 297.806386
1884.058486 5586.9667 309.116457
1882.453196 5562.497161 308.154251
1886.885433 5538.65197 310.816017
1901.620251 5515.966075 319.662177
1910.435039 5492.690637 324.954556
1932.954359 5471.073456 338.473193
1949.553257 5448.880834 348.43818
1962.791116 5426.368344 356.385399
1980.343721 5404.48345 366.922755
1986.017447 5381.1438 370.329638
1989.192497 5357.491895 372.236798
2001.792959 5335.147079 379.80152
2007.636613 5311.91514 383.310749
2031.403943 5291.308157 397.578384
2052.662768 5270.474029 410.340343
2053.562288 5246.674491 410.881586
2059.620763 5223.665904 414.519785
2056.390836 5199.203766 412.581998
2073.605241 5178.019169 422.916346
2080.679195 5155.253318 427.163857
2097.991287 5134.250371 437.556399
2108.563466 5112.182169 443.903776
2103.928475 5087.48692 441.122821
2107.831601 5064.273866 443.466902
2104.169184 5039.679632 441.26968
2099.724631 5014.892265 438.603198
2078.420772 4986.847348 425.816747
2091.878612 4965.359824 433.895992
2065.649577 4936.121269 418.153354
2057.253536 4910.252866 413.114792
2033.725461 4881.214387 398.993288
2035.607962 4857.260272 400.124788
1979.336434 4821.018968 366.348802
1920.657695 4783.841974 331.127887
1830.922871 4739.452194 277.265656
1462.538999 4632.654237 56.143445
1444.843638 4602.185559 45.522853
1386.178408 5926.757107 58.836727
1526.293165 5908.345684 142.047525
1562.519077 5885.058616 163.56104
1511.210496 5856.811264 133.090859
1510.636469 5831.394855 132.750509
1658.633171 5815.797968 220.641729
1745.704952 5796.95887 272.351509
1789.902488 5775.573754 298.599621
1800.685345 5751.929292 305.003191
1802.089978 5727.599491 305.837711
1806.127276 5703.488492 308.235476
1805.080255 5678.955772 307.613833
1810.953149 5655.026805 311.102258
1811.741977 5630.652191 311.570624
1845.153131 5609.429891 331.412712
1861.476119 5586.710276 341.107093
1881.27821 5564.450277 352.867114
1895.99334 5541.768332 361.606656
1912.47416 5519.369988 371.393955
1923.87259 5496.491064 378.16373
1931.047819 5473.181097 382.424841
1930.583036 5448.985055 382.149339
1937.019326 5425.626706 385.971681
1941.803315 5402.08662 388.812977
1947.499649 5378.683314 392.196232
1962.648538 5356.5747 401.193185
1985.532958 5335.618793 414.783718
2014.437577 5315.653385 431.949822
2031.437159 5294.14844 442.045499
2043.367302 5271.991046 449.130675
2059.612392 5250.551992 458.778714
2047.78083 5224.855861 451.75227
2053.910217 5201.904427 455.392955
2047.321779 5176.91722 451.480004
2054.419244 5154.128389 455.695538
2083.695703 5135.113142 473.082154
2103.651853 5114.673813 484.934019
2089.645857 5088.384277 476.616557
2086.759822 5063.970342 474.902781
2090.733261 5040.766662 477.263051
2081.179642 5015.051201 471.589478
2079.33471 4990.70951 470.494008
2070.766974 4965.033446 465.406228
2082.616337 4943.287045 472.443298
2064.01029 4915.508069 461.393959
2069.199464 4892.418572 464.475802
2024.501642 4859.013524 437.931827
1986.68102 4826.718722 415.471482
1983.633819 4801.575824 413.661863
1982.344076 4776.766277 412.896096
1970.137374 4749.508665 405.6477
1924.238511 4714.574597 378.389828
1362.249816 4534.79615 44.641919
1267.438267 7812.573271 41.087348
1353.946726 5926.291584 91.810248
1649.552232 5915.982204 265.344244
1672.946171 5892.464879 279.0767
1651.610063 5866.450057 266.550755
1650.148836 5841.528837 265.691764
1702.131577 5820.115249 296.207581
1756.741464 5799.227657 328.265267
1788.155259 5777.013638 346.706043
1798.106893 5753.370382 352.547179
1808.115606 5729.788766 358.422156
1794.956793 5704.344085 350.69638
1783.584745 5678.955381 344.019391
1762.821673 5652.635347 331.830029
1768.777391 5628.651009 335.325446
1799.715193 5607.107399 353.486348
1855.617201 5588.254859 386.302909
1879.769479 5566.490679 400.480791
1891.947484 5543.600532 407.629285
1899.029791 5520.220331 411.786024
1896.728499 5495.808761 410.434177
1920.230121 5474.384523 424.230003
1926.62346 5451.048873 427.982587
1932.216436 5427.642283 431.264915
1936.152497 5404.048155 433.574802
1933.291712 5379.578081 431.894849
1957.907369 5358.755098 446.344563
1985.993843 5338.560108 462.832373
2019.258532 5319.269693 482.359303
2033.732541 5297.481062 490.855329
2055.100233 5276.791235 503.398731
2049.149142 5252.102173 499.904142
2034.713501 5226.044402 491.429383
2037.441068 5202.579046 493.029595
2029.123372 5177.330539 488.145817
2037.095301 5154.690932 492.825292
2053.46228 4941.620388 502.426245
2060.302751 4918.897454 506.441248
2060.402132 4894.83122 506.498899
2052.922524 4869.176017 502.107302
2026.844615 4839.540421 486.797207
2005.097177 4810.622776 474.029247
1976.654779 4780.074435 457.331387
1958.473088 4751.561662 446.65721
1985.25318 4732.958005 462.377697
1911.361411 4691.629877 418.998207
1857.07079 4654.279182 387.125576
1273.675579 4438.262113 44.638637
1193.890655 5998.333035 48.929241
1214.564142 5972.942465 60.928298
1565.433556 5937.705873 264.603103
1689.062873 5919.143487 336.368067
1695.238737 5894.867717 339.951077
1658.288915 5868.08019 318.50007
1662.000192 5843.575363 320.652546
1696.858616 5821.135922 340.886257
1758.528525 5800.778372 376.683689
1788.302893 5778.514623 393.965579
1808.634235 5755.727364 405.766482
1801.410105 5730.881743 401.570978
1805.463594 5706.910044 403.921894
1804.402743 5682.51656 403.304577
1799.092183 5657.724155 400.219488
1840.396856 5637.212597 424.195235
1868.816185 5615.730484 440.691297
1883.496357 5593.059552 449.210995
1883.58612 5568.973203 449.261657
1882.014713 5544.698154 448.34746
1889.114131 5521.352714 452.467081
1909.182236 5499.508862 464.114678
1938.765545 5478.896834 481.286254
1952.908267 5456.62033 489.494362
1953.343524 5432.733393 489.745293
1959.857968 5409.605057 493.524839
1962.131877 5385.953811 494.842977
1990.238495 5365.754714 511.157081
2003.787394 5343.735671 519.020766
2028.548729 5323.366833 533.392953
2031.038993 5299.948157 534.8369
2041.309448 5277.673772 540.797187
2031.908253 5252.488022 535.338
2025.146807 5227.627719 531.410816
2020.165823 5202.982122 528.517863
2019.533321 5178.983017 528.149045
2018.962135 5154.970565 527.815513
2047.442671 4896.208241 544.328711
2056.116775 4873.90518 549.362677
2046.97249 4847.908592 544.052498
2043.004076 4822.925251 541.746743
2039.953595 4798.085707 539.974195
2028.471885 4771.346498 533.306926
2027.256056 4746.791509 532.599483
2001.493001 4716.637512 517.642254
1992.787423 4690.200596 512.586291
1956.112279 4632.490795 491.292491
1893.45283 4592.73096 454.916209
1828.396777 4551.915654 417.148113
1107.508546 6181.088998 51.985635
1276.094849 6157.77096 148.708644
1431.721955 6135.296337 237.99653
1488.539315 6111.364812 270.59247
1501.190565 6086.54754 277.848641
1516.504576 6061.895607 286.631934
1529.278485 6037.252609 293.957663
1582.857362 6014.270634 324.696201
1624.353215 5991.136412 348.501264
1653.769302 5967.725761 365.376191
1710.105284 5945.82057 397.695687
1717.96583 5921.760908 402.203419
1698.16208 5896.210848 390.837874
1667.164328 5869.861664 373.049557
1651.828441 5844.272617 364.247878
1677.261256 5821.246028 378.836922
1734.783162 5800.595688 411.837756
1782.823726 5779.638305 439.398273
1797.154119 5756.444632 447.617467
1811.541068 5733.341598 455.869242
1813.004924 5709.260375 456.706534
1825.775126 5686.150349 464.030353
1840.330339 5663.274141 472.378883
1856.66949 5640.650502 481.750902
1865.281911 5617.385652 486.689085
1863.582538 5593.141883 485.711108
1861.080793 5568.792296 484.273402
1856.049914 5544.144932 481.383827
1869.217199 5521.443785 488.935917
1929.916956 5504.181603 523.759842
1931.958685 5480.498422 524.928934
1940.962725 5457.64903 530.09183
1948.297043 5434.639773 534.297282
1963.447911 5412.653535 542.987572
1975.201878 5390.314011 549.728831
1997.348919 5369.424213 562.433093
2010.928024 5347.497673 570.221307
2027.142533 5326.015704 579.522021
2016.722545 5300.808839 573.54062
2020.998209 5277.670375 575.991153
2009.850311 5252.226252 569.591572
2004.789377 5227.624313 566.685188
1990.340883 5201.493907 558.392506
2021.496904 5182.564198 576.265828
2000.890301 4794.038502 564.396575
1996.202903 4768.72971 561.704424
1995.842674 4744.32418 561.495024
1988.736938 4718.36557 557.414946
1977.449361 4691.368528 550.935899
1982.393061 4668.046321 553.769478
1974.649427 4641.730531 549.323232
1949.147477 4611.068486 534.687818
1926.286778 4580.841074 521.567891
1841.605752 4535.155109 472.976934
1748.621515 4486.762225 419.621968
1691.397557 4446.767996 386.785082
1006.998803 6393.551693 47.906337
1045.075326 6366.531105 69.492823
1255.394176 6313.05055 188.742828
1291.93324 6287.242008 209.458052
1338.104769 6261.728381 235.635277
1406.95785 6236.714237 274.673377
1467.174049 6212.057401 308.81446
1506.573467 6187.485989 331.151549
1573.866876 6163.694051 369.305613
1613.385346 6139.74149 391.710524
1596.433003 6114.626782 382.093881
1620.417157 6090.565789 395.689515
1647.938735 6066.77349 411.291777
1656.390143 6042.489071 416.079804
1666.640083 6018.326335 421.888397
1703.030007 5995.325154 442.518988
1716.005874 5971.500718 449.872804
1727.301365 5947.675866 456.274088
1736.049994 5923.789323 461.230886
1704.019051 5897.696684 443.063834
1671.19151 5871.335556 424.445247
1638.435769 5844.752583 405.867202
1649.176882 5820.786345 411.954005
1711.208497 5800.411397 447.125154
1769.807017 5780.196768 480.349502
1809.349799 5758.929452 502.768486
1817.697358 5735.457746 507.497657
1829.572476 5712.322479 514.227917
1831.961986 5688.446479 515.579212
1843.951736 5665.428822 522.374088
1846.459294 5641.605826 523.792115
1854.228449 5618.292844 528.193737
1830.855662 5591.935206 514.936129
1816.219513 5566.302769 506.632314
1800.787312 5540.474715 497.877723
1833.053445 5519.737321 516.170522
1887.007407 5501.643616 546.761532
1927.143666 5482.299168 569.517219
1940.495754 5460.017865 577.084821
1963.414894 5438.985091 590.077889
1975.140055 5416.68146 596.72252
1995.562675 5395.567793 608.29968
2005.661952 5373.206971 614.022985
2012.360787 5350.434394 617.817798
2004.43608 5325.649124 613.31988
1995.713724 5300.680459 608.370015
1994.825233 5276.781067 607.862455
1990.548065 5252.350492 605.433373
1987.197666 5228.015713 603.529452
2008.045227 5207.428315 615.347386
1946.81309 4664.475822 580.538652
1920.309289 4633.687948 565.50538
1904.122701 4605.1536 556.321894
1898.233133 4578.976341 552.978521
1872.002373 4547.718947 538.0993
1823.770009 4510.74992 510.743811
1734.889129 4463.115553 460.337048
1712.406833 4431.876223 447.583825
1710.382601 4405.772423 446.431896
1705.03871 4378.743284 443.397108
1692.144172 4349.624096 436.080683
919.488175 6555.924694 48.453161
932.828581 6528.605008 55.929105
993.327389 6500.202919 89.853043
1261.060333 6441.945851 239.993404
1325.275004 6415.19917 276.001491
1386.070981 6388.921208 310.092646
1441.702196 6363.092791 341.287
1455.533471 6337.841627 349.03886
1488.61813 6312.65251 367.588445
1508.68269 6287.660946 378.836383
1562.084693 6238.191763 408.77558
1568.3827 6213.481632 412.302716
1572.999941 6188.786553 414.886848
1609.94508 6164.718808 435.602059
1616.428823 6140.2297 439.233559
1633.438317 6116.045831 448.768099
1641.788179 6091.726855 453.445867
1650.19915 6067.460838 458.158284
1668.26102 6043.58633 468.282823
1673.306629 6019.32695 471.107742
1674.925484 5994.954216 472.011224
1682.708228 5970.864459 476.370885
1695.779249 5947.077666 483.696594
1729.819766 5924.460968 502.782669
1702.930342 5898.700484 487.697281
1673.497735 5872.604344 471.18528
1616.265732 5844.584543 439.082572
1591.333743 5818.280255 425.094373
1643.088892 5797.060965 454.116111
1725.356403 5778.374568 500.250428
1769.361326 5757.350703 524.925137
1816.021607 5736.820195 551.089677
1840.104965 5714.741642 564.591807
1851.192182 5691.70662 570.805206
1861.467415 5668.662323 576.563322
1863.973437 5644.961171 577.963891
1875.231963 5622.101687 584.273321
1890.890556 5599.73989 593.050618
1887.490189 5575.524729 591.138809
1911.944874 5554.212972 604.849278
1912.135869 5530.412586 604.951655
1930.615747 5508.651922 615.311378
1942.204275 5486.205452 621.805757
1960.787414 5464.656372 632.223437
1970.746914 5442.162222 637.804445
1985.963231 5420.38138 646.334201
1986.496506 5396.792605 646.628513
1993.154831 5374.004485 650.357943
1989.476165 5349.840113 648.289901
1975.471188 5324.196428 640.430122
1980.578386 5301.168243 643.28986
1977.956322 5277.027831 641.81472
2002.208147 5256.867197 655.411843
2031.690508 5237.653199 671.942208
2051.704763 5217.141315 683.162806
2074.355584 5197.167386 695.862068
2078.051443 5174.238952 697.930161
2080.078903 5151.039536 699.062803
1863.092045 4599.848981 577.259059
1838.427651 4569.051796 563.420205
1832.621025 4542.685208 560.158782
1808.989712 4511.805433 546.899205
1739.46035 4469.134047 507.896456
1705.838143 4435.140138 489.033699
1675.729563 4401.790928 472.141108
1660.180426 4372.02658 463.414567
1646.419396 4342.595787 455.690984
1570.775095 4296.314986 413.25825
837.123162 6720.749802 56.409669
856.191247 6692.657809 66.970243
1129.680522 6627.111643 218.520805
1187.45721 6598.726702 250.532899
1231.322464 6571.214626 274.836448
1280.508196 6543.831757 302.087796
1348.128537 6516.262588 339.555952
1402.706705 6489.469804 369.796437
1440.740569 6463.399129 390.868298
1456.103836 6437.996221 399.376295
1472.406973 6412.685063 408.404906
1480.028592 6387.583079 412.622866
1512.957546 6337.4503 430.859636
1520.772137 6312.562045 435.184249
1551.390003 6287.766769 452.146506
1553.2074 6263.028735 453.147537
1559.460811 6238.338443 456.607137
1582.394636 6213.884987 469.311038
1569.531298 6189.042249 462.175916
1586.466393 6164.662132 471.555611
1604.337847 6140.411588 481.454183
1603.906096 6115.818236 481.208648
1749.613152 5902.395824 561.906482
1699.997383 5875.350333 534.402871
1652.20425 5848.080329 507.909922
1599.249971 5820.146757 478.55625
1569.948782 5793.469515 462.310946
1599.208361 5770.788958 478.521003
1693.979202 5753.214403 531.038093
1759.979897 5734.006476 567.610699
1803.332815 5713.378226 591.631489
1838.005835 5692.292426 610.842114
1859.645094 5670.274078 622.828851
1861.282875 5646.553803 623.731024
1876.927589 5624.167072 632.395709
1885.654312 5601.191027 637.226391
1894.437118 5578.267422 642.08806
1913.728371 5556.495714 652.774059
1924.363263 5533.90211 658.662234
1929.829856 5510.787244 661.686057
1932.743619 5487.401348 663.294978
1956.596341 5466.506259 676.508858
1959.621725 5443.215357 678.179793
1956.62032 5419.174443 676.510646
1953.682071 5395.106315 674.876429
1962.970667 5372.619193 680.018631
1947.99402 5346.890443 671.712461
1951.323037 5323.585716 673.551646
1975.541599 5303.258987 686.968334
2018.024506 5285.736891 710.508054
2044.058071 5266.033823 724.930808
2051.925506 5243.722186 729.285249
2074.580686 5223.747941 741.836038
2070.424029 5199.641217 739.526506
2068.062607 5175.779407 738.211961
2080.479628 5154.335272 745.088197
2060.933758 5127.542282 734.249517
2061.357456 5104.045468 734.478442
1872.160144 4656.141984 629.517401
1878.949085 4633.071113 633.27389
1853.256451 4602.286494 619.027656
1836.218293 4573.38302 609.578226
1803.017324 4540.372853 591.170579
1751.975656 4502.667294 562.874163
1729.252028 4471.707997 550.273376
1700.650321 4439.056107 534.414337
1644.003054 4398.911585 503.010993
1618.189022 4366.426175 488.697032
1589.920705 4333.07366 473.022973
1570.275071 4301.811066 462.127496
716.347701 7949.835418 42.559895
728.601757 7919.16226 49.263995
751.320141 7886.58637 61.700597
766.347908 7855.64664 69.924177
784.060638 7824.339407 79.618903
806.193917 7792.372405 91.734639
815.422864 7762.889249 96.782286
821.265308 7734.087812 99.974711
824.584815 7705.786533 101.78487
814.965353 7679.712309 96.507909
781.974068 7657.45839 78.428121
739.475883 7636.544093 55.140415
722.635196 6945.644166 45.718111
745.533777 6916.382201 58.253608
992.04954 6844.707004 193.280573
1053.744041 6814.09305 227.069846
1109.397282 6784.270028 257.549006
1156.374243 6755.327229 283.276276
1198.176819 6726.987486 306.168802
1266.341642 6697.579824 343.502557
1315.311881 6669.554632 370.321515
1352.090407 6642.404691 390.461821
1351.254542 6617.060605 389.996861
1375.026274 6590.781451 403.011652
1421.329939 6513.618753 428.356098
1448.003659 6487.831909 442.961371
1459.838641 6462.543412 449.43745
1483.137437 6437.128433 462.194074
1477.564137 6412.298885 459.133754
1493.099943 6387.190645 467.637332
1513.087017 6362.15059 478.579389
1514.719047 6337.334298 479.4668
1521.677438 6312.520145 483.271805
1527.822105 6287.750868 486.630464
1677.717248 5875.187878 568.629041
1649.939292 5849.14903 553.404057
1616.978136 5822.580284 535.339756
1581.464439 5795.609825 515.876683
1546.025547 5768.399645 496.455077
1555.295497 5744.293179 501.526166
1646.871519 5726.675039 551.688835
1731.475635 5709.088988 598.031928
1792.491284 5690.056085 631.452305
1825.562586 5668.953534 649.563527
1850.812154 5647.344953 663.389442
1865.622671 5624.904252 671.496837
1869.129052 5601.439341 673.4107
1898.02686 5580.565303 689.235997
1887.671871 5555.753548 683.556202
1914.053001 5534.838219 698.002558
1911.676582 5510.875529 696.693835
1911.108098 5487.091219 696.375313
1917.579753 5464.123198 699.914226
1922.364008 5440.97803 702.528538
1914.130445 5416.22235 698.011054
1921.650155 5393.418862 702.124131
1947.521616 5373.069235 716.290947
1987.371555 5354.76536 738.116474
2025.513686 5336.476533 759.006208
2047.153783 5316.088448 770.855853
2054.049198 5293.687023 774.626529
2061.869516 5271.452154 778.904714
2061.920776 5248.072666 778.926277
2056.819326 5223.873921 776.124582
2058.731395 5200.735291 777.165414
2058.097917 5177.178042 776.811731
2058.394317 5153.751786 776.967075
2042.268005 5127.533318 768.12535
2037.490365 5103.140156 765.501211
2036.245132 5079.315531 764.812287
2027.265354 5054.075111 759.885717
2026.150057 5030.186998 759.268018
2015.575866 5004.512038 753.46773
2017.186734 4981.047843 754.343237
1879.41463 4735.767499 678.799157
1873.114544 4709.872629 675.339717
1849.68401 4680.016617 662.49592
1831.50357 4651.18058 652.527784
1817.704966 4623.215783 644.960509
1793.686026 4592.698999 631.793702
1722.203398 4500.109912 592.607856
1673.732691 4462.661362 566.043715
1651.068587 4431.416336 553.618543
1600.276846 4392.718372 525.782746
1549.620682 4353.666461 498.02083
1525.581112 4321.284934 484.84234
1498.230117 4287.810879 469.849078
1477.811591 4255.995059 458.654148
629.456653 8048.196028 49.931437
655.31704 8014.301736 63.917537
689.937439 7978.841737 82.644511
725.53499 7943.453512 101.900482
737.839526 7912.886316 108.550704
757.168869 7881.082258 119.002431
771.384361 7850.400674 126.686554
768.326905 7823.041279 125.023058
780.971301 7792.833145 131.856916
814.553696 7759.003593 150.022736
826.508181 7729.209782 156.483038
836.806368 7699.807253 162.047735
854.145395 7669.313237 171.422499
850.682338 7642.3876 169.539592
841.193602 7616.435568 164.394928
792.568853 7596.625168 138.070022
712.606133 7581.355414 94.783934
625.678406 7566.623875 47.728561
618.935456 7119.096084 43.932663
619.511803 7091.147563 44.235271
648.211214 7060.654465 59.759156
664.721207 7031.43474 68.686021
978.62503 6977.241137 238.57204
1074.304827 6942.838128 290.348736
1148.156756 6910.777933 330.311181
1182.61322 6882.150503 348.952023
1224.172631 6853.258137 371.437202
1228.94135 6827.143357 374.009484
1244.314381 6800.385664 382.321592
1286.103658 6772.124723 404.931392
1336.384611 6692.891128 432.120558
1356.505476 6666.55635 443.002741
1379.333845 6640.239333 455.349939
1389.047514 6614.62018 460.599099
1396.19154 6589.169324 464.457887
1406.038369 6563.675905 469.779173
1415.072298 6538.277592 474.66065
1421.534075 6513.016243 478.149526
1440.370776 6487.494608 488.337216
1694.669305 5853.12715 625.771687
1658.094836 5826.546028 605.966483
1627.740733 5800.137171 589.527984
1568.495327 5771.456718 557.45158
1524.252523 5743.495331 533.495381
1506.412907 5717.288463 523.830909
1527.239483 5694.09746 535.095887
1605.126638 5675.865826 577.247413
1702.334089 5659.840221 629.85693
1751.345166 5640.050446 656.378025
1783.744656 5619.00467 673.907485
1821.447668 5598.681536 694.308219
1828.533836 5575.496416 698.136108
1842.684268 5553.085139 705.787784
1843.756076 5529.344556 706.360087
1854.516778 5506.675277 712.177231
1874.957181 5485.174186 723.233713
1886.701079 5462.770485 729.582805
1925.606185 5443.725863 750.634772
1955.806971 5423.841445 766.974455
1962.454317 5401.128452 770.565104
2004.975902 5383.159262 793.574646
2024.823648 5362.403219 804.310621
2050.829381 5342.614395 818.379974
2031.497191 5316.571584 807.907762
2037.538531 5294.055277 811.169943
2054.972428 5273.250533 820.599763
2045.430691 5248.458162 815.427
2038.57156 5223.998224 811.706392
2034.391935 5199.897236 809.436082
2041.595091 5177.589562 813.327926
2028.837351 5152.017499 806.413908
2037.029548 5129.866706 810.841201
