# .PCD v0.7 - Point Cloud Data file format
VERSION 0.7
FIELDS x y z
SIZE 4 4 4
TYPE F F F
COUNT 1 1 1
WIDTH 1362
HEIGHT 1
VIEWPOINT 0 0 0 1 0 0 0
POINTS 1362
DATA ascii
-203.677086 6324.972968 1554.240049
-199.587847 6338.401319 1550.330187
-204.577034 6351.498044 1554.319428
-208.84022 6364.591457 1557.6776
-211.623574 6377.727665 1559.748715
-215.942936 6390.766655 1563.157295
-210.493786 6404.322163 1558.062322
-220.897663 6416.977165 1566.769083
-237.352912 6429.172343 1580.747664
-237.262503 6442.361236 1580.319561
-246.23663 6454.908953 1587.786641
-248.460996 6467.900784 1589.375502
-251.465566 6480.819354 1591.644825
-245.468148 6494.466633 1586.070843
-248.531056 6507.380496 1588.390544
-262.902996 6519.251136 1600.566918
-266.769523 6532.010468 1603.589372
-281.187489 6543.706905 1615.810393
-273.832218 6557.527578 1609.051689
-283.039247 6569.652948 1616.732414
-273.492616 6583.779022 1608.061008
-288.759313 6595.15818 1621.027885
-277.773056 6609.522218 1611.099281
-287.084237 6621.50728 1618.874329
-291.917236 6633.990477 1622.744044
-291.526911 6647.122189 1622.056787
-296.413711 6659.561082 1625.974318
-299.07806 6672.275648 1627.953172
-295.776244 6685.822484 1624.724669
-311.976778 6696.571631 1638.520017
-296.753873 6711.890768 1624.883816
-301.775887 6724.240195 1628.921206
-307.570965 6736.438971 1633.634678
-307.409406 6749.561384 1633.146656
-313.256268 6761.704373 1637.90647
-317.633723 6774.060863 1641.383545
-329.504265 6785.099534 1651.407904
-315.268234 6800.667984 1638.622782
-321.965729 6812.579628 1644.12816
-324.957265 6825.134085 1646.395484
-320.521139 6839.076612 1642.170721
-331.020629 6850.192268 1651.00146
-318.453245 6865.76833 1639.666219
-322.303553 6878.166605 1642.684267
-322.459823 6891.301594 1642.472055
-322.646022 6904.442925 1642.285635
-319.144953 6918.378878 1638.873874
-320.134865 6931.384506 1639.38969
-327.836014 6942.918546 1645.777093
-314.039079 6959.226092 1633.353982
-318.828592 6971.416167 1637.19378
-316.230443 6985.29759 1634.567995
-315.14711 6998.857376 1633.267194
-322.980237 7010.299274 1639.771909
-321.954868 7023.856518 1638.521598
-327.616692 7035.778239 1643.126455
-321.477219 7050.64742 1637.396666
-321.284261 7064.05744 1636.873613
-315.955265 7078.822998 1631.851056
-320.254244 7091.103257 1635.262147
-321.628944 7104.150364 1636.111129
-328.190628 7115.790076 1641.505692
-321.521212 7131.052657 1635.30488
-328.135903 7142.660442 1640.746215
-334.772613 7154.225594 1646.207836
-328.204934 7169.566969 1640.093533
-326.08329 7183.678866 1637.875718
-323.262248 7198.033833 1635.043513
-319.742923 7212.641327 1631.597981
-319.191325 7226.392044 1630.754357
-319.404161 7239.930501 1630.580596
-326.965446 7251.185572 1636.853907
-332.353528 7263.088522 1641.221359
-323.153356 7279.655595 1632.786545
-323.489428 7293.214653 1632.719501
-323.857519 7306.782085 1632.679965
-318.42545 7322.30321 1627.547674
-319.589008 7335.662409 1628.205298
-323.694108 7348.027157 1631.445457
-328.55205 7360.12 1635.347041
-321.809421 7376.258512 1629.059561
-326.000141 7388.599727 1632.374652
-321.511928 7404.042049 1628.064774
-319.963322 7418.478607 1626.336444
-322.070407 7431.609384 1627.819831
-332.166167 7441.781825 1636.324654
-322.759236 7459.21446 1627.687153
-319.179565 7474.538635 1624.170148
-314.918478 7490.178732 1620.052499
-321.512307 7501.668358 1625.478858
-328.12834 7513.118946 1630.925568
-321.811837 7529.666273 1624.997481
-325.60655 7542.241652 1627.962272
-327.273455 7555.672975 1629.055061
-317.48801 7573.802395 1620.070387
-323.528954 7585.498848 1625.010779
-318.132311 7601.949043 1619.884778
-314.927195 7617.548445 1616.685787
-318.196118 7630.441967 1619.185387
-313.637931 7646.707289 1614.792915
-324.818976 7656.194333 1624.259075
-313.918244 7675.313146 1614.27874
-315.178316 7689.161415 1615.007073
-325.006416 7699.190601 1623.282714
-307.849435 7721.36847 1607.784142
-312.766714 7733.646486 1611.732455
-317.000241 7746.227427 1615.078657
-308.511718 7764.723071 1607.21115
-305.029534 7780.971549 1603.754202
-304.417888 7795.922171 1602.826581
-297.490518 7813.932779 1596.328937
-291.319598 7831.670572 1590.495609
-283.790566 7850.158646 1583.462349
-284.054445 7864.913712 1583.300933
-265.379895 7889.098773 1566.429891
-246.082634 7913.795 1549.004053
-235.982877 7934.052394 1539.68959
-209.136251 7962.970309 1515.591146
-206.174537 7979.884117 1512.569002
-182.996345 8007.346125 1491.696986
-163.40147 8033.179107 1473.98243
-143.892992 8059.180217 1456.338742
-137.003041 8078.681717 1449.833919
-124.606997 8101.239195 1438.463074
-93.530998 8134.058783 1410.584999
-80.606766 8157.293792 1398.737108
-46.281284 8192.466357 1367.972578
-28.688644 8218.708907 1351.987435
5.400914 8254.384617 1321.414525
62.133332 8303.191545 1270.815031
122.122702 8354.417759 1217.320555
777.523691 4300.535091 794.611936
710.483327 4347.828487 851.034069
695.505355 4372.447822 863.274042
682.63571 4396.023458 873.728139
658.074107 4424.320908 894.113731
631.971685 4453.015804 915.814496
616.700818 4477.050005 928.321327
596.262 4503.01038 945.222782
591.787374 4522.400845 948.565876
574.858053 4546.643613 962.49374
558.59006 4570.45825 975.863946
554.679916 4589.332757 978.735783
563.158052 4603.408618 971.078458
540.861388 4629.171875 989.582274
541.201016 4646.251075 988.845974
536.36837 4665.222053 992.507948
531.487868 4684.144205 996.212587
519.216591 4705.675476 1006.205307
517.909768 4723.157054 1006.874371
509.943114 4742.95955 1013.21014
500.452744 4763.204306 1020.844805
489.436124 4783.875628 1029.780544
479.838879 4803.94849 1037.511519
479.776814 4820.7013 1037.128954
452.368283 4846.549588 1060.026864
460.333741 4860.499924 1052.813762
443.143895 4882.677588 1067.019384
447.339065 4897.821617 1063.017575
440.401187 4916.510795 1068.49764
427.492862 4936.99385 1079.065451
424.903135 4954.159466 1080.845578
423.755449 4970.844206 1081.398487
419.601155 4988.405193 1084.514117
410.949938 5007.249375 1091.46337
414.878465 5022.314906 1087.693078
409.855899 5039.982337 1091.552677
405.533758 5057.390959 1094.816458
395.96064 5076.22266 1102.559055
379.639321 5096.831705 1116.058356
344.640026 5122.398807 1145.491399
305.093686 5148.894721 1178.810785
304.246517 5164.787681 1179.125442
282.471378 5186.129508 1197.296041
252.425816 5209.41193 1222.528358
246.214995 5226.396804 1227.427484
228.005983 5246.312227 1242.568653
223.950093 5262.592134 1245.632943
222.099322 5278.291268 1246.816098
209.734957 5296.461282 1256.976077
216.791299 5309.978765 1250.556042
205.093313 5327.848918 1260.150823
187.354246 5346.977281 1274.908192
167.609091 5396.279846 1290.60552
164.702219 5411.812717 1292.701112
158.003903 5428.092789 1298.037751
149.764578 5444.619921 1304.693312
135.47197 5462.273158 1316.524987
139.933221 5476.153249 1312.327335
133.081778 5492.214604 1317.801514
112.647495 5510.748856 1334.891935
120.016898 5524.027126 1328.208791
113.051891 5539.919319 1333.785013
-104.201351 6192.319186 1503.638708
-127.092703 6205.941051 1522.970305
-140.913812 6219.406135 1534.505539
-151.730371 6232.783388 1543.459304
-158.78442 6246.116107 1549.178633
-163.593743 6259.426749 1552.968044
-161.609807 6272.820081 1550.913499
-167.992129 6286.053576 1556.057804
-172.129953 6299.297269 1559.271507
-177.053449 6312.489342 1563.162198
-178.975027 6325.744004 1564.469967
-193.046325 6338.544278 1576.237651
-196.539389 6351.666606 1578.899858
-200.81757 6364.730464 1582.239206
-193.765531 6378.310162 1575.821116
-201.887353 6391.160971 1582.471139
-204.736705 6404.247465 1584.580935
-215.18278 6416.863358 1593.236134
-216.574082 6429.97855 1594.091291
-232.369028 6442.118884 1607.358691
-233.814663 6455.162882 1608.262372
-240.582979 6467.802594 1613.7539
-244.352456 6480.632201 1616.661621
-239.079283 6494.185903 1611.774016
-239.127252 6507.326339 1611.473516
-255.826731 6518.966891 1625.531709
-238.555795 6533.688247 1610.296056
-252.284768 6545.50622 1621.795003
-247.916545 6559.07209 1617.685403
-256.410985 6571.316787 1624.671747
-250.593037 6585.073668 1619.310443
-271.963292 6595.793926 1637.409218
-260.924415 6610.16539 1627.542063
-268.013794 6622.429615 1633.319649
-269.099116 6635.398814 1633.915507
-270.213016 6648.364998 1634.536132
-271.355701 6661.327502 1635.181475
-277.043991 6673.666994 1639.752131
-288.025453 6685.226483 1648.895008
-286.991338 6698.44898 1647.66158
-286.739587 6711.572336 1647.103424
-290.275696 6724.1303 1649.817702
-287.075913 6737.7246 1646.712147
-295.17464 6749.542452 1653.369375
-290.532557 6763.399838 1649.016809
-290.427028 6776.541976 1648.583847
-292.601893 6789.303642 1650.122105
-288.804924 6803.10996 1646.497616
-285.04135 6816.952206 1642.90089
-290.301265 6829.176648 1647.105992
-279.111055 6844.460451 1637.085085
-285.177282 6856.536585 1641.987509
-288.274576 6869.158262 1644.322656
-287.659845 6882.509285 1643.446604
-286.328819 6896.02339 1641.950217
-284.282035 6909.710323 1639.833914
-282.267141 6923.420134 1637.744523
-282.523915 6936.669739 1637.620422
-271.622192 6952.379794 1627.836321
-286.854015 6962.353537 1640.675874
-287.198482 6975.605165 1640.627299
-292.785224 6987.655477 1645.118094
-290.210486 7001.597229 1642.540972
-277.999203 7017.880381 1631.615947
-297.054155 7026.670042 1647.773848
-290.858041 7041.567186 1642.057743
-291.382459 7054.841335 1642.16322
-291.194461 7068.308663 1641.651273
-294.746019 7080.824992 1644.379689
-292.395079 7094.883623 1641.992222
-291.559176 7108.572971 1640.917117
-290.015661 7122.477871 1639.227899
-301.079926 7132.94183 1648.470342
-289.984495 7149.524997 1638.4971
-290.754725 7162.8523 1638.812715
-293.031421 7175.759277 1640.434737
-294.599221 7188.873084 1641.441874
-300.619314 7200.676469 1646.3116
-293.402635 7216.416495 1639.695908
-291.380831 7230.657068 1637.586672
-295.278916 7243.111757 1640.614797
-294.057231 7257.150532 1639.198729
-295.807297 7270.281012 1640.362383
-287.312081 7286.696614 1632.629183
-297.929558 7297.006984 1641.491547
-292.44145 7312.538222 1636.367945
-293.583834 7325.932124 1637.001987
-288.903598 7341.297377 1632.576991
-291.574535 7354.218777 1634.537963
-298.656866 7365.620411 1640.331651
-293.351825 7381.306911 1635.361352
-293.922304 7394.985508 1635.49602
-296.711477 7407.89069 1637.558819
-290.792028 7423.942395 1632.050444
-288.552491 7438.721435 1629.739885
-292.165424 7451.380548 1632.517581
-286.364421 7467.552513 1627.107854
-288.58853 7480.764374 1628.676744
-279.243269 7498.403327 1620.181001
-295.2984 7506.332247 1633.781735
-284.584267 7524.607369 1624.092391
-291.274364 7536.126655 1629.545788
-288.596725 7551.354017 1626.846895
-287.40163 7566.032762 1625.437162
-288.405429 7579.851539 1625.940747
-291.602674 7592.786243 1628.353895
-281.876514 7611.097312 1619.512924
-283.705408 7624.662775 1620.732747
-284.129035 7638.836508 1620.728405
-291.044358 7650.252061 1626.378147
-289.379689 7665.352855 1624.553759
-289.185491 7679.853006 1624.009372
-284.735763 7696.26454 1619.755505
-284.617665 7710.812314 1619.275486
-277.396836 7728.588681 1612.603291
-277.357823 7743.193425 1612.189657
-295.874922 7749.311698 1627.954508
-283.79177 7769.479109 1617.038539
-284.564743 7783.769162 1617.331404
-275.432441 7802.761404 1608.983514
-258.554848 7825.556263 1593.876216
-258.75367 7840.319391 1593.66305
-259.697178 7854.753251 1594.098707
-243.710732 7877.502343 1579.758882
-240.507173 7894.110633 1576.571604
-210.548327 7924.118953 1550.027182
-203.239036 7943.036748 1543.249058
-181.208828 7969.524709 1523.614408
-172.621415 7989.36309 1515.713178
-153.564358 8014.721595 1498.66493
-138.097266 8038.417849 1484.747094
-116.404813 8065.560692 1465.385771
-98.301796 8091.035688 1449.154797
-74.694743 8119.653902 1428.108642
-67.233674 8139.824372 1421.167582
-41.017739 8170.293636 1397.829795
-16.996622 8199.839724 1376.403567
16.652791 8234.966248 1346.551709
80.025769 8286.999473 1290.699089
131.406129 8332.921875 1245.318208
728.395872 4348.036724 870.501041
695.157698 4380.345206 897.98637
688.784971 4401.109998 902.883324
683.817578 4421.209522 906.599833
656.893526 4450.233854 928.791103
640.841804 4474.593386 941.8404
632.765479 4495.586981 948.182251
615.849281 4519.997075 961.966743
621.574306 4535.334906 956.697445
603.070253 4560.117891 971.824966
599.904408 4578.815496 974.043016
597.426995 4597.197247 975.68272
584.614371 4619.424956 986.027642
575.418048 4640.171496 993.329755
580.152862 4655.681883 988.899423
568.647241 4677.12389 998.150968
564.456083 4695.809348 1001.242642
552.102279 4717.3441 1011.214398
557.410339 4732.530945 1006.304273
530.914652 4758.810789 1028.20071
513.952836 4781.57024 1042.066164
516.905507 4797.394567 1039.145943
505.014235 4818.208112 1048.74214
484.175031 4841.872619 1065.887207
486.995706 4857.585889 1063.082326
483.845688 4875.233442 1065.313704
485.849463 4891.183918 1063.198198
478.159652 4910.191952 1069.261956
474.138663 4927.972559 1072.231902
476.76841 4943.650341 1069.590523
482.341295 4958.434735 1064.464851
490.117677 4972.582154 1057.478577
491.157407 4988.764659 1056.178363
477.991871 5009.083208 1066.872918
459.549265 5030.797445 1082.026594
440.300599 5052.574828 1097.865301
435.185651 5070.221298 1101.770233
430.77573 5087.614658 1105.081421
412.113544 5108.833579 1120.434785
391.148911 5130.504425 1137.737763
374.617005 5150.81987 1151.29982
374.51133 5166.712891 1150.982861
332.397661 5193.356866 1186.173814
302.202091 5216.643444 1211.298477
273.440698 5239.320852 1235.217116
253.623178 5259.569353 1251.579625
252.52642 5275.14197 1252.11521
238.620231 5293.723511 1263.484873
230.679866 5310.793019 1269.811396
213.673122 5329.860801 1283.809982
194.358499 5349.299799 1299.76442
141.461024 5479.241808 1341.496191
134.579957 5495.250646 1346.947768
126.904925 5511.342153 1353.073363
116.924966 5527.78384 1361.153477
103.12418 5544.81874 1372.473163
106.676209 5558.710488 1369.091634
104.145321 5573.65765 1370.864629
96.283011 5589.463847 1377.157462
92.925429 5604.46703 1379.633194
83.474778 5620.402397 1387.275291
107.315418 5631.095947 1366.693705
-17.830201 6053.824003 1462.470634
-53.449667 6069.102321 1492.420523
-58.649564 6083.007763 1496.493773
-76.061436 6097.266762 1510.960377
-92.742971 6111.371915 1524.80898
-93.466569 6124.955276 1525.077459
-95.742959 6138.565321 1526.668022
-114.037953 6152.430428 1541.897043
-116.373938 6165.945621 1543.540903
-126.353349 6179.515357 1551.693964
-134.077601 6192.996386 1557.928318
-134.980087 6206.407904 1558.353899
-138.956872 6219.807423 1561.398019
-139.918031 6233.19509 1561.874174
-143.953222 6246.547853 1564.969552
-157.912404 6259.737355 1576.522109
-152.872824 6273.151852 1571.885971
-154.711964 6286.460944 1573.111964
-169.515749 6299.435046 1585.38967
-166.847522 6312.802232 1582.774495
-171.055413 6325.967726 1586.022074
-175.29264 6339.103738 1589.294859
-184.881294 6351.995077 1597.132563
-184.611306 6365.251118 1596.563284
-188.172532 6378.329952 1599.261783
-197.843089 6391.069153 1607.173143
-193.859402 6404.498101 1603.435859
-202.064834 6417.236729 1610.09931
-213.336003 6429.723735 1619.380357
-208.680204 6443.198469 1615.069625
-206.333621 6456.549645 1612.7287
-226.037678 6468.275188 1629.212942
-224.506076 6481.525275 1627.569007
-225.281767 6494.602038 1627.894873
-223.809733 6507.873583 1626.301065
-225.402308 6520.886356 1627.324591
-227.02363 6533.890713 1628.372472
-230.947892 6546.66328 1631.388314
-230.351329 6559.873162 1630.541946
-239.635964 6572.051403 1638.138768
-238.338546 6585.323121 1636.693805
-243.887549 6597.837276 1641.100243
-247.191059 6610.579593 1643.587777
-245.223816 6623.942417 1641.569944
-253.880377 6636.001182 1648.635036
-248.945471 6649.752366 1644.079269
-253.117271 6662.34254 1647.310521
-249.75668 6675.937134 1644.099744
-257.006294 6688.077904 1649.964395
-257.482499 6701.149158 1650.035338
-258.743061 6714.109585 1650.777247
-255.503716 6727.754937 1647.668338
-259.086452 6740.371765 1650.397374
-250.62955 6754.895436 1642.821509
-253.517226 6767.637559 1644.955185
-251.911032 6781.121935 1643.241578
-243.556857 6795.787378 1635.749991
-251.05074 6807.748573 1641.82716
-246.527642 6821.818578 1637.61407
-250.312469 6834.413242 1640.515646
-241.342176 6849.377135 1632.491186
-251.198995 6860.826715 1640.594411
-243.798996 6875.576611 1633.913325
-248.450233 6888.000184 1637.557177
-251.626039 6900.698903 1639.937085
-252.579119 6913.846211 1640.412454
-249.812667 6927.783297 1637.699068
-256.82115 6939.657019 1643.364894
-258.610164 6952.631109 1644.556691
-255.936677 6966.598471 1641.92173
-259.281801 6979.23822 1644.447532
-258.167263 6992.893341 1643.148449
-260.821495 7005.689385 1645.08178
-260.516103 7019.185334 1644.476102
-261.734702 7032.329055 1645.17768
-261.4908 7045.839799 1644.623891
-259.041992 7059.920532 1642.177374
-267.057482 7071.374912 1648.711791
-263.181337 7085.854382 1645.039271
-261.573462 7099.786663 1643.31302
-257.767762 7114.334025 1639.698586
-267.375369 7125.302594 1647.601894
-253.235763 7142.727084 1635.11119
-263.639331 7153.451196 1643.698794
-255.517325 7169.340281 1636.373277
-264.486446 7180.418902 1643.729867
-256.438858 7196.386068 1636.465805
-254.355293 7210.680257 1634.325007
-263.402246 7221.688315 1641.749572
-260.641636 7236.215296 1639.026074
-258.655917 7250.546683 1636.967592
-253.015394 7266.049253 1631.765901
-262.16539 7276.962923 1639.280708
-259.542897 7291.576275 1636.672523
-264.320291 7303.841481 1640.427915
-262.501056 7318.2467 1638.509547
-265.128673 7331.215688 1640.415779
-261.907528 7346.145457 1637.289598
-261.660416 7360.113722 1636.721421
-257.779324 7375.355008 1633.025088
-264.198616 7387.070973 1638.1931
-254.528855 7404.413958 1629.512299
-252.226131 7419.239518 1627.171198
-261.657835 7429.884031 1634.932812
-265.263175 7442.59473 1637.678158
-258.678366 7459.052408 1631.647828
-255.784583 7474.21473 1628.794783
-256.57223 7488.039287 1629.111715
-257.392788 7501.869356 1629.456439
-257.51837 7515.985878 1629.202045
-255.498421 7530.961663 1627.097911
-255.693426 7545.108409 1626.902019
-266.077114 7555.23039 1635.487701
-259.085294 7572.271482 1629.095507
-257.932428 7587.027477 1627.735749
-259.709416 7600.619195 1628.901572
-252.847535 7617.803158 1622.616266
-251.80818 7632.635604 1621.35131
-256.57554 7645.048739 1625.094245
-258.486601 7658.670409 1626.3733
-240.997943 7680.67462 1610.912963
-255.214027 7689.042029 1622.808045
-255.790709 7703.319377 1622.933763
-249.227108 7720.794217 1616.895363
-249.880242 7735.117342 1617.085102
-246.988699 7751.071643 1614.213374
-244.138832 7767.062418 1611.376576
-236.330258 7785.398323 1604.255474
-247.131616 7795.161716 1613.206229
-248.677965 7809.21647 1614.163562
-237.439072 7829.358642 1604.074263
-225.550332 7849.942033 1593.420342
-219.409838 7867.884724 1587.730223
-221.838224 7881.73496 1589.444155
-201.611156 7906.748645 1571.574101
-181.468594 7931.932572 1553.771549
-175.557379 7950.199857 1548.268456
-148.502643 7979.242168 1524.479389
-132.841225 8002.750668 1510.536787
-122.89514 8023.49615 1501.533355
-101.044107 8050.544039 1482.227757
-82.80117 8075.936469 1466.03792
-70.963727 8098.150829 1455.386003
-52.181124 8124.207189 1438.719507
-17.371996 8159.074766 1408.175921
-0.183815 8184.758243 1392.876932
30.197542 8217.839965 1366.150561
100.942305 8273.453336 1304.46548
105.240908 8292.881112 1300.306204
795.067011 4327.783888 850.653421
735.418545 4371.341478 899.8658
722.457734 4394.933616 910.203382
716.755452 4415.395516 914.497886
706.600967 4437.595248 922.503447
693.450504 4460.889668 933.00833
680.968851 4483.777293 942.9597
662.543661 4508.883818 957.867869
648.458734 4532.109798 969.162516
649.032059 4549.511304 968.240981
642.196762 4569.729609 973.497337
627.197391 4592.959778 985.563417
629.105367 4609.696723 983.53282
619.158304 4630.819777 991.390657
614.328432 4649.957693 994.982523
601.313365 4671.999906 1005.404588
596.380117 4691.009369 1009.086754
589.917144 4710.49612 1014.047319
561.26233 4754.689932 1037.103097
553.153423 4774.445169 1043.444903
548.708489 4792.870346 1046.730024
544.216808 4811.251073 1050.055621
528.519834 4833.276073 1062.740439
532.863427 4848.607796 1058.69096
528.233648 4866.845895 1062.136586
515.357938 4887.650954 1072.472618
509.140447 4906.23687 1077.248794
516.312601 4920.593384 1070.83818
510.009638 4939.115882 1075.688034
517.861269 4953.284758 1068.708937
532.415295 4965.494024 1056.126519
538.716762 4980.229825 1050.440617
536.002375 4997.615994 1052.292396
517.512261 5019.484298 1067.336706
495.214047 5042.263701 1085.570195
476.602198 5063.818989 1100.725192
467.688056 5082.543514 1107.772345
463.232719 5099.971812 1111.091435
443.707664 5121.370055 1127.02056
436.903933 5139.24977 1132.308766
415.013023 5160.968616 1150.225456
390.804567 5183.090052 1170.086488
361.263797 5206.343769 1194.416729
339.942935 5227.317316 1211.871162
338.161605 5243.351859 1212.969933
323.523712 5262.435689 1224.835486
295.255974 5284.601601 1248.119214
279.003047 5303.74854 1261.345355
252.882911 5325.001666 1282.840635
231.236934 5345.034681 1300.593109
223.898201 5361.738639 1306.362267
206.688212 5380.505461 1320.40526
196.237629 5397.690126 1328.786682
185.744525 5414.790621 1337.206463
177.47989 5431.341335 1343.760533
169.932695 5447.671652 1349.714927
154.76861 5465.430368 1362.057669
126.8622 5543.798578 1383.621529
119.803309 5559.567236 1389.178224
107.389158 5576.181003 1399.230561
104.053211 5591.184184 1401.666328
98.401736 5606.527464 1406.046609
89.672842 5622.304022 1413.011498
85.470296 5637.307302 1416.178369
84.275936 5651.817042 1416.820782
80.765677 5666.648398 1419.407918
70.370636 5682.428212 1427.778249
68.313385 5696.962283 1429.147269
59.368111 5712.402768 1436.303345
48.863374 5727.972988 1444.771306
43.655788 5742.780763 1448.79061
38.413771 5757.546309 1452.840198
40.761572 5771.355591 1450.512508
35.453593 5786.065015 1454.618892
36.213339 5800.047567 1453.626088
-4.392767 5901.862011 1485.311373
-6.179703 5915.884183 1486.465317
-15.636141 5930.485987 1494.073628
-18.25075 5944.506293 1495.925953
-38.468106 5959.737415 1512.594331
-44.203659 5973.851514 1517.076468
-33.159878 5986.870238 1507.433978
-41.249556 6001.093216 1513.898995
-49.37125 6015.254681 1520.39268
-57.52457 6029.353901 1526.914332
-66.473667 6043.426841 1534.107908
-65.516563 6056.998767 1532.959092
-67.64795 6070.699759 1534.412043
-80.51207 6084.768408 1544.907733
-80.411171 6098.321872 1544.481226
-87.985031 6112.093047 1550.52267
-91.002496 6125.694699 1552.725187
-91.756316 6139.226423 1553.020388
-104.008081 6152.945556 1563.008404
-107.115674 6166.453056 1565.28928
-114.839695 6179.980083 1571.463361
-119.535272 6193.431988 1575.085085
-118.909664 6206.841 1574.21982
-124.428965 6220.242597 1578.537541
-135.328114 6233.570799 1587.394641
-139.376323 6246.885332 1590.473986
-146.511501 6260.128882 1596.158564
-146.03289 6273.452676 1595.419399
-153.989343 6286.602873 1601.799231
-156.62557 6299.828705 1603.6898
-157.763238 6313.080379 1604.31545
-163.512887 6326.175207 1608.835362
-158.598744 6339.618672 1604.35201
-163.642266 6352.702126 1608.276676
-168.714476 6365.74887 1612.226212
-172.287928 6378.833153 1614.910666
-175.126581 6391.932227 1616.975224
-189.441516 6404.376762 1628.735375
-178.599933 6418.208675 1619.243242
-183.050301 6431.162913 1622.670685
-187.528818 6444.08623 1626.122486
-198.135676 6456.545989 1634.754914
-193.518658 6470.066748 1630.520542
-201.891817 6482.609342 1637.267072
-192.761947 6496.533244 1629.216074
-202.714972 6508.890538 1637.299598
-197.457082 6522.545949 1632.520983
-211.270886 6534.459778 1643.872086
-210.640625 6547.683649 1643.007684
-216.891181 6560.221935 1647.963707
-217.080157 6573.357592 1647.792529
-210.451334 6587.242571 1641.852119
-224.390674 6598.863233 1653.316318
-222.384729 6612.247173 1651.287561
-223.449888 6625.284056 1651.857573
-210.867398 6640.019769 1640.874364
-226.427088 6651.249123 1653.71503
-221.504311 6665.075478 1649.215192
-224.205506 6677.910792 1651.170134
-217.070146 6692.111592 1644.794425
-214.520851 6705.717499 1642.301872
-218.069009 6718.451832 1644.97394
-212.549731 6732.54339 1639.963847
-216.155906 6745.269639 1642.685266
-215.245544 6758.697896 1641.579307
-216.63699 6771.767605 1642.423884
-214.273818 6785.465266 1640.085995
-215.725054 6798.540475 1640.980748
-216.448896 6811.742288 1641.258859
-217.958474 6824.810338 1642.203186
-215.71999 6838.562872 1639.968975
-212.00355 6852.620029 1636.480605
-229.453116 6862.689052 1650.944352
-223.531508 6877.175558 1645.585351
-227.448129 6889.771132 1648.571598
-217.073048 6905.237359 1639.431797
-227.829399 6916.444582 1648.221828
-230.323821 6929.31575 1650.001584
-226.827357 6943.462105 1646.696308
-232.389295 6955.677211 1651.079998
-226.702086 6970.35763 1645.913514
-233.071435 6982.376168 1650.982989
-225.949756 6997.456798 1644.596799
-220.3681 7012.249438 1639.516618
-229.073145 7023.707903 1646.570296
-231.802791 7036.55543 1648.549182
-228.567961 7050.861803 1645.460596
-219.379284 7066.694984 1637.312101
-230.433835 7077.487215 1646.364183
-219.822722 7093.784879 1637.004227
-217.475971 7108.02406 1634.666476
-220.391175 7120.902777 1636.801018
-227.066429 7132.762505 1642.132314
-236.001797 7143.969402 1649.386648
-230.796336 7159.04423 1644.616757
-221.905005 7175.215062 1636.710342
-235.38788 7185.092235 1647.833688
-225.082169 7201.763094 1638.721691
-224.485846 7215.686696 1637.868506
-226.150858 7228.962417 1638.938303
-234.526198 7240.22158 1645.718822
-225.862649 7256.637818 1637.998603
-223.173044 7271.294445 1635.361124
-227.926556 7283.6599 1639.058976
-229.745479 7296.939679 1640.258852
-227.896725 7311.404696 1638.335352
-232.734319 7323.728469 1642.105429
-243.503908 7334.077659 1650.928139
-221.089666 7355.441386 1631.485538
-229.706132 7366.521093 1638.47411
-231.712539 7379.814629 1639.831619
-234.485468 7392.848914 1641.842154
-228.461728 7408.964183 1636.356041
-228.3603 7423.053839 1635.915784
-222.419197 7439.261642 1630.496684
-217.988994 7454.993751 1626.364114
-237.053944 7462.169037 1642.263516
-231.954578 7478.174651 1637.559471
-232.019093 7492.310191 1637.258195
-229.92536 7507.288263 1635.11508
-224.947937 7523.415338 1630.511164
-228.040281 7536.481562 1632.79036
-231.890408 7549.250526 1635.716247
-223.387027 7566.90571 1628.099723
-229.487151 7578.815156 1632.944839
-232.702322 7591.865984 1635.328157
-222.147503 7610.543837 1625.955684
-223.982962 7624.223435 1627.159435
-219.325629 7640.623108 1622.818431
-218.334021 7655.545547 1621.606407
-223.891571 7667.719208 1625.987464
-217.186592 7685.144236 1619.893468
-216.307216 7700.126469 1618.774774
-217.629831 7714.181567 1619.536329
-223.308936 7726.327327 1624.020389
-212.45684 7745.840748 1614.376323
-209.573591 7761.883703 1611.540704
-218.225614 7772.728602 1618.565043
-215.415813 7788.800305 1615.790494
-201.180415 7810.229341 1603.244612
-213.503996 7819.374023 1613.408343
-204.38217 7838.58281 1605.231411
-193.889324 7858.557264 1595.878619
-195.588253 7872.786917 1596.953103
-180.214046 7895.330388 1583.41857
-169.896915 7915.563685 1574.207546
-158.929979 7936.242871 1564.437202
-141.633574 7960.212706 1549.245375
-125.126167 7983.97383 1534.724502
-118.617774 8002.83791 1528.760311
-85.265691 8035.549052 1499.806838
-66.880398 8060.859808 1483.662974
-56.347407 8082.279172 1474.239884
-39.532688 8107.133745 1459.432363
-12.233024 8137.736064 1435.636644
12.847123 8167.436493 1413.735736
39.228983 8198.103814 1390.712514
83.750217 8238.911635 1352.135136
152.649108 8293.52663 1292.648988
803.555599 4350.983516 880.402856
764.13298 4385.727013 912.453761
750.340789 4409.596972 923.377343
748.259278 4428.564542 924.646164
737.288368 4451.057585 933.248277
723.305807 4474.627853 944.338013
707.042512 4498.95195 957.313585
701.788627 4518.821707 961.207801
690.569383 4540.919109 970.027112
688.167557 4559.532004 971.572022
682.757596 4579.232395 975.600903
668.404761 4602.200661 987.01507
657.695433 4623.677598 995.423845
643.958936 4646.147313 1006.33549
645.014978 4663.134113 1005.033778
628.934773 4686.224453 1017.886515
611.301421 4709.707838 1032.026278
603.278915 4729.667682 1038.230025
596.694103 4749.040912 1043.247875
589.313334 4768.608462 1048.925283
581.136696 4788.361033 1055.26301
581.866892 4805.056879 1054.240421
567.615917 4826.664423 1065.602701
571.248195 4842.321627 1062.183203
561.380297 4862.319751 1069.926376
564.934162 4877.960003 1066.572937
560.213689 4896.197791 1070.06246
554.698182 4914.622006 1074.21123
558.887008 4930.018359 1070.333519
569.046752 4943.629195 1061.51554
569.41745 4960.209558 1060.795989
575.760849 4975.019936 1055.134121
572.298119 4992.697071 1057.587443
561.269324 5012.486981 1066.305241
547.177551 5033.032481 1077.560836
528.511397 5054.71641 1092.607258
524.859038 5072.12753 1095.225739
521.164957 5089.502861 1097.879747
486.494031 5115.062582 1126.19136
463.071082 5137.386671 1145.192816
448.649689 5157.189285 1156.742228
431.15333 5177.643091 1170.842474
418.894495 5196.632775 1180.606534
395.239166 5218.316695 1199.817823
378.335725 5238.16435 1213.438144
363.651508 5257.335168 1225.222663
339.067284 5278.698112 1245.217298
328.068201 5296.722686 1253.953794
313.990375 5315.34512 1265.245604
295.311672 5334.868431 1280.355668
279.617615 5353.580319 1292.994488
266.912197 5371.514323 1303.1576
243.525497 5391.591868 1322.184353
226.164573 5410.227059 1336.216566
192.788833 5431.973946 1363.541155
187.494274 5447.845034 1367.568633
179.118569 5464.267163 1374.154547
163.851669 5481.935538 1386.462458
165.292412 5496.333181 1384.90361
145.37138 5514.665104 1401.080351
149.026389 5528.581698 1397.685066
133.593062 5545.885371 1410.14105
126.243228 5576.135782 1415.528421
108.829582 5607.85757 1429.280998
85.480579 5654.457212 1447.620453
90.361304 5668.007204 1443.210888
74.57245 5684.522616 1455.983037
81.682237 5697.745059 1449.720745
58.934851 5715.025986 1468.283001
68.27541 5727.937075 1460.166188
54.632465 5743.825637 1471.162443
51.666728 5758.291014 1473.280425
42.543497 5773.460012 1480.521529
42.573567 5787.498568 1480.149241
39.507863 5801.8764 1482.352918
37.942189 5816.063194 1483.309022
30.98125 5830.793741 1488.755871
17.088843 5846.160003 1499.973297
8.525608 5860.9018 1506.757355
9.127631 5874.726697 1505.912854
9.698656 5888.554489 1505.094143
2.570513 5903.036053 1510.686501
-7.658112 5917.710358 1518.862684
-11.017558 5931.772766 1521.319303
-16.710088 5945.977769 1525.720111
-22.434856 5960.137884 1530.148995
-28.191088 5974.254293 1534.60536
-32.445041 5988.230913 1537.810627
-37.497262 6002.218689 1541.682481
-48.721404 6016.503083 1550.699117
-45.394159 6029.961769 1547.588733
-53.610673 6043.986001 1554.10117
-57.252771 6057.748244 1556.801185
-59.390535 6071.422896 1558.247559
-65.397165 6085.217894 1562.920752
-68.36335 6098.869144 1565.059404
-81.341245 6112.778391 1575.549432
-92.813754 6126.552391 1584.785983
-83.587239 6139.816095 1576.755703
-91.281194 6153.430879 1582.841981
-96.702141 6166.959006 1587.033034
-100.617568 6180.432833 1589.968271
-103.794557 6193.873188 1592.288102
-114.678507 6207.30254 1601.041926
-113.309324 6220.678617 1599.567968
-118.878224 6234.02366 1603.886897
-120.638659 6247.3663 1605.026557
-122.428737 6260.696991 1606.191088
-126.550719 6273.975457 1609.303851
-128.399421 6287.272621 1610.518466
-141.787328 6300.269964 1621.373042
-139.090574 6313.632184 1618.791417
-142.561225 6326.815977 1621.362757
-145.294187 6340.004067 1623.31807
-153.424076 6352.957759 1629.784556
-148.545632 6366.425266 1625.378942
-152.131632 6379.529569 1628.048442
-162.646238 6392.253073 1636.511381
-161.689853 6405.536571 1635.384653
-166.128239 6418.511788 1638.76875
-169.827975 6431.505123 1641.53584
-167.428077 6444.882838 1639.201642
-164.292399 6458.335352 1636.25122
-168.845515 6471.245423 1639.732952
-171.895117 6484.244084 1641.957315
-179.565133 6496.845598 1648.048716
-178.078991 6510.181547 1646.4782
-182.743448 6522.983507 1650.055487
-178.257896 6536.611935 1645.973788
-186.802144 6549.012658 1652.80009
-183.905778 6562.512808 1650.048046
-187.919072 6575.31704 1653.081693
-185.083195 6588.842469 1650.379736
-185.334052 6602.050244 1650.262607
-174.925474 6616.505249 1641.215859
-176.76588 6629.574835 1642.429062
-179.398266 6642.539814 1644.306072
-174.430957 6656.466144 1639.814768
-180.935276 6668.927648 1644.936374
-180.604806 6682.274658 1644.330378
-181.066648 6695.523566 1644.388306
-182.319731 6708.665029 1645.109337
-185.886772 6721.46549 1647.77064
-184.914661 6734.934597 1646.625873
-186.255693 6748.063108 1647.420771
-183.823602 6761.79077 1645.0508
-178.382223 6776.036485 1640.156205
-182.85565 6788.685428 1643.577492
-193.432528 6800.271389 1652.120763
-191.88209 6813.898853 1650.489394
-185.050868 6828.490962 1644.425771
-185.084104 6841.898929 1644.121792
-188.180707 6854.748857 1646.389089
-192.821313 6867.294838 1649.952987
-195.973079 6880.105573 1652.267285
-196.123761 6893.497366 1652.061549
-190.250454 6908.113706 1646.796926
-195.004184 6920.608051 1650.45658
-193.735537 6934.338835 1649.057658
-194.010831 6947.763745 1648.955544
-187.518686 6962.669765 1643.167369
-192.388392 6975.130822 1646.924304
-197.284061 6987.562451 1650.703742
-190.140144 7002.724355 1644.364976
-196.601624 7014.791852 1649.460634
-198.567377 7027.887893 1650.777919
-194.540512 7042.425183 1647.056453
-201.834615 7054.242306 1652.853463
-194.866336 7069.562002 1646.657329
-190.942933 7084.183715 1643.020528
-196.068227 7096.533804 1646.993752
-190.71217 7111.589147 1642.149935
-184.644834 7126.89212 1636.706474
-191.358972 7138.830929 1642.016181
-195.849363 7151.340105 1645.455515
-187.640867 7167.339686 1638.207348
-188.452067 7180.894613 1638.549099
-193.032363 7193.39097 1642.063737
-190.168472 7208.015157 1639.311106
-200.77806 7218.743298 1647.902903
-191.263924 7235.367857 1639.549136
-190.741305 7249.38861 1638.766156
-199.191063 7260.703239 1645.540372
-194.262341 7276.094122 1641.044986
-196.068665 7289.442118 1642.223079
-194.188961 7303.962603 1640.29455
-197.54375 7316.841159 1642.776653
-196.474329 7331.150239 1641.529885
-195.43902 7345.478088 1640.311318
-192.957262 7360.317469 1637.872532
-200.878454 7371.696189 1644.203823
-190.325174 7389.328511 1634.957763
-195.346196 7401.699165 1638.843224
-198.915108 7414.55781 1641.504759
-187.014961 7432.87209 1631.117302
-196.551621 7443.651918 1638.812044
-200.212745 7456.499307 1641.550552
-193.596143 7473.096179 1635.616513
-204.676404 7483.233639 1644.615734
-190.053223 7502.907352 1631.92162
-193.844241 7515.770758 1634.768196
-188.861539 7531.979472 1630.207681
-189.784549 7545.975095 1630.632153
-187.812842 7561.118535 1628.611527
-191.731273 7573.98216 1631.564654
-187.639087 7590.032669 1627.751273
-187.970115 7604.362363 1627.673254
-188.336247 7618.703056 1627.624322
-190.923381 7632.155083 1629.451302
-188.445003 7647.717556 1626.997318
-178.73393 7666.363142 1618.429184
-180.703342 7680.170019 1619.732148
-182.705164 7693.975485 1621.061815
-189.089853 7705.898076 1626.096872
-181.010149 7724.110841 1618.90149
-183.83827 7737.614619 1620.928431
-174.407093 7756.579792 1612.586012
-172.976688 7772.062272 1611.008891
-178.078937 7784.624927 1614.957723
-178.883529 7799.143323 1615.270247
-161.726991 7821.987507 1600.382995
-177.723029 7829.5465 1613.549401
-168.580805 7848.836036 1605.440349
-165.236964 7865.48176 1602.237098
-153.337871 7886.293134 1591.789175
-147.230619 7904.439121 1586.241801
-139.030619 7923.6947 1578.92026
-127.316544 7944.787081 1568.619453
-107.819912 7969.885682 1551.722719
-96.246966 7991.21856 1541.533834
-73.35163 8018.415611 1521.747998
-46.995594 8047.617757 1499.023418
-29.973664 8072.286851 1484.203252
-8.777898 8099.310981 1465.840455
13.742268 8127.256212 1446.349176
41.118292 8158.005256 1422.734932
61.31911 8185.218318 1405.197968
133.655332 8240.643717 1343.44013
189.554951 8287.862056 1295.6069
876.517756 4328.460531 856.544866
820.021687 4370.410684 902.222565
805.473769 4394.725091 913.65595
783.464715 4421.905299 931.186995
786.52421 4438.836584 928.246439
765.113249 4465.458963 945.296868
757.700954 4486.385763 950.914947
748.749493 4507.819416 957.792491
736.771396 4530.312122 967.14654
723.245057 4553.267289 977.768905
703.707587 4578.343865 993.308223
692.27995 4600.21787 1002.221821
675.579908 4623.909741 1015.449801
672.224784 4642.585789 1017.768736
666.586096 4662.029147 1021.956882
657.911656 4682.479964 1028.629697
648.43598 4703.11704 1035.960328
655.348067 4717.95499 1029.886312
628.57132 4744.399657 1051.376016
633.151567 4759.955125 1047.212059
620.470656 4781.316547 1057.174362
620.47347 4798.345669 1056.758053
609.184632 4819.050219 1065.585552
615.854388 4833.829304 1059.71338
606.720347 4853.690735 1066.7805
599.037259 4872.998386 1072.661599
600.329304 4889.424851 1071.194217
596.315602 4907.472888 1074.072877
583.220131 4928.226136 1084.392801
596.442787 4940.962642 1073.153731
586.268981 4960.706988 1081.083174
609.993908 4970.450932 1061.236154
617.855368 4984.93094 1054.386091
611.335255 5003.539749 1059.323073
591.16364 5025.903055 1075.452514
569.41646 5048.523007 1092.877898
555.930096 5068.70427 1103.534498
548.447237 5087.149732 1109.27109
542.432764 5105.129765 1113.805569
516.666954 5128.192067 1134.54185
502.969156 5147.938103 1145.383872
477.838638 5170.45116 1165.608306
466.308948 5189.364743 1174.678644
450.172933 5209.301823 1187.531301
431.704999 5229.659947 1202.301424
416.983001 5248.969126 1214.000602
400.689168 5268.516479 1226.993339
379.777183 5288.982592 1243.780461
364.901212 5307.909883 1255.616301
337.787849 5329.421598 1277.504317
321.28393 5348.398182 1290.684369
315.403574 5364.959321 1295.142404
298.804758 5383.714364 1308.406197
285.972178 5401.552051 1318.579561
266.224059 5420.678748 1334.437542
252.534662 5438.436914 1345.32093
227.340576 5458.319941 1365.66208
213.556813 5475.818379 1376.629786
196.669942 5493.780267 1390.151106
178.972616 5511.749725 1404.342275
177.296184 5526.697436 1405.364575
150.327038 5546.065238 1427.185143
149.338673 5560.750943 1427.645247
129.168611 5578.642968 1443.881858
131.171274 5592.730293 1441.884334
127.777285 5607.689135 1444.325788
109.782347 5624.898383 1458.781306
118.584904 5637.868886 1451.190437
108.182066 5653.758313 1459.402636
89.300822 5670.790258 1474.595055
95.704944 5684.09736 1468.978127
80.013646 5714.645316 1481.205474
74.166349 5743.684806 1485.332431
65.813417 5758.825308 1491.868707
51.275181 5774.628145 1503.501371
47.462632 5789.084649 1506.301092
53.613592 5802.400841 1500.893295
42.045435 5817.656014 1510.084271
31.980049 5832.663294 1518.039215
32.65123 5846.5201 1517.147405
30.212823 5860.674079 1518.818766
26.972722 5874.879318 1521.151799
16.002103 5889.737584 1529.858322
10.386841 5904.056409 1534.151684
4.738832 5918.330811 1538.473057
5.989341 5932.028969 1537.106376
-3.574061 5946.523607 1544.658793
-11.630474 5960.837475 1550.969888
-19.718815 5975.090245 1557.308935
-13.200603 5988.37702 1551.598245
-28.287461 6002.962503 1563.713926
-32.619391 6016.849357 1566.956768
-40.064958 6030.858433 1572.770499
-40.605109 6044.487348 1572.885725
-45.800885 6058.309498 1576.844337
-49.485963 6072.032639 1579.556637
-57.05611 6085.864007 1585.477696
-52.323504 6099.248457 1581.240396
-59.954865 6113.012113 1587.21348
-74.554659 6126.885035 1598.94393
-78.392549 6140.429727 1601.786953
-70.697678 6153.754907 1595.102593
-78.450539 6167.335061 1601.180848
-81.607961 6180.816176 1603.462936
-86.337427 6194.2816 1607.044597
-74.909845 6207.690682 1597.273058
-90.489813 6221.12231 1609.824445
-93.766963 6234.513042 1612.207705
-98.614763 6247.865607 1615.890167
-104.263138 6261.172361 1620.235178
-115.334371 6274.343586 1629.066057
-106.400869 6287.858507 1621.353579
-110.596476 6301.115016 1624.499158
-114.050079 6314.363969 1627.03177
-118.303806 6327.563002 1630.226893
-129.517715 6340.480359 1639.181652
-126.89739 6353.872074 1636.690304
-128.927636 6367.082164 1638.047509
-135.605756 6380.059463 1643.25186
-136.154811 6393.306026 1643.383545
-135.963208 6406.593681 1642.90208
-130.416028 6420.203137 1637.986238
-135.670499 6433.180729 1642.013766
-145.568618 6445.813853 1649.888169
-139.342616 6459.512631 1644.40916
-144.682931 6472.405788 1648.509768
-143.131754 6485.801914 1646.901932
-137.000742 6499.589882 1641.499106
-147.805819 6511.980689 1650.128843
-147.881807 6525.255314 1649.869081
-144.147944 6538.891133 1646.451245
-136.607055 6552.930928 1639.877002
-148.288945 6565.097138 1649.236933
-143.880743 6578.86556 1645.258595
-147.943671 6591.755582 1648.303538
-148.199613 6605.050371 1648.192087
-145.418865 6618.703649 1645.561697
-142.67048 6632.382426 1642.957228
-147.615442 6645.138095 1646.734648
-145.69471 6658.740931 1644.81628
-157.587647 6670.552629 1654.359328
-145.774733 6685.486668 1644.232133
-152.364131 6697.962747 1649.375402
-144.44674 6712.470246 1642.478645
-149.563415 6725.135653 1646.400051
-152.414341 6738.113555 1648.440869
-153.001168 6751.429275 1648.602245
-158.964253 6763.900489 1653.227836
-163.426198 6776.579159 1656.607904
-164.863518 6789.736895 1657.475761
-162.51601 6803.537212 1655.200152
-163.25067 6816.831305 1655.484203
-157.157098 6831.343869 1650.094684
-161.002394 6844.113122 1652.962528
-163.352005 6857.141237 1654.58807
-164.20878 6870.446469 1654.972836
-156.727719 6885.366332 1648.42662
-162.970918 6897.655982 1653.288182
-157.839846 6912.192491 1648.693756
-164.898426 6924.289148 1654.233823
-160.592837 6938.713537 1650.324396
-160.117532 6952.371427 1649.599525
-155.881713 6966.860937 1645.746239
-163.809407 6978.719999 1652.010654
-154.336726 6994.430685 1643.798969
-159.291052 7006.940644 1647.589635
-160.488294 7020.298839 1648.254515
-155.665294 7035.08281 1643.908849
-164.485202 7046.648971 1650.917656
-169.549348 7059.077589 1654.801585
-159.540319 7075.214453 1646.136245
-161.647461 7088.398556 1647.557283
-169.816138 7100.034648 1654.026427
-161.428598 7115.918347 1646.70736
-156.095596 7131.08083 1641.930756
-153.05999 7145.688454 1639.0667
-168.8637 7155.227827 1651.897466
-156.117124 7172.518161 1640.941355
-165.953722 7183.621849 1648.801859
-163.049326 7198.274715 1646.045192
-158.681327 7213.389831 1642.067145
-154.352011 7228.547018 1638.120423
-157.55259 7241.536363 1640.450016
-164.523631 7253.391794 1645.923676
-163.290244 7267.698686 1644.556539
-164.33414 7281.335626 1645.087683
-157.940802 7297.299565 1639.415169
-163.531255 7309.558347 1643.738154
-165.417753 7322.974951 1644.971407
-163.609558 7337.592919 1643.121324
-170.772543 7349.310572 1648.757176
-167.541596 7364.436446 1645.718779
-164.34947 7379.596926 1642.711742
-160.453376 7395.045481 1639.115871
-158.824499 7409.769585 1637.411721
-161.682036 7422.970071 1639.452594
-169.756317 7434.336501 1645.850196
-158.600955 7452.502157 1636.188074
-165.993029 7464.10783 1642.015772
-163.058836 7479.436263 1639.218035
-157.949169 7495.614119 1634.601233
-156.572347 7510.469695 1633.102129
-155.232549 7525.347278 1631.633093
-158.349942 7538.566565 1633.888268
-154.137315 7554.604623 1630.016611
-158.790623 7567.257135 1633.555169
-153.922036 7583.638921 1629.132607
-163.040541 7594.534634 1636.40472
-158.247561 7610.962284 1632.043839
-159.359436 7625.06455 1632.619982
-148.06498 7644.26611 1622.817556
-152.910786 7656.912466 1626.51569
-149.020005 7673.197782 1622.903805
-148.091351 7688.294693 1621.769054
-150.116639 7702.16912 1623.105862
-151.445944 7716.354942 1623.859904
-145.535346 7733.708135 1618.552446
-144.760749 7748.887049 1617.543341
-145.476075 7763.441581 1617.780572
-138.250329 7781.575992 1611.367293
-139.770195 7795.85168 1612.276517
-143.49462 7809.140448 1615.031956
-147.971718 7822.082019 1618.418008
-137.313632 7842.052044 1609.123043
-135.371751 7858.0584 1607.128834
-137.075003 7872.388594 1608.188221
-128.736649 7891.534683 1600.830575
-117.580044 7912.145105 1591.10797
-105.051509 7933.554452 1580.231986
-98.328082 7952.258297 1574.219932
-78.047081 7977.768403 1556.836324
-57.137405 8003.805958 1538.920229
-40.604841 8027.857239 1524.670431
-16.298345 8056.042129 1503.894611
1.492104 8081.138566 1488.579422
24.184501 8108.964189 1469.14652
47.491742 8137.350718 1449.191522
79.22586 8170.415202 1422.15765
139.934151 8219.167734 1370.793596
145.876777 8239.213992 1365.394212
889.966748 4349.95852 883.808001
865.765953 4378.38355 902.920982
842.219559 4406.314192 921.510599
831.959271 4428.72538 929.36691
816.432303 4453.098994 941.48292
807.532311 4474.728323 948.245323
792.615414 4498.57991 959.875044
773.903064 4523.730437 974.577675
749.896017 4550.703928 993.567264
739.24426 4572.456567 1001.759166
715.832203 4598.818619 1020.276414
723.744296 4613.493607 1013.455541
706.184368 4637.429886 1027.244862
715.514926 4651.568034 1019.277233
698.58723 4675.051878 1032.560201
687.59233 4696.297143 1041.045023
693.802009 4711.474413 1035.604659
687.211201 4731.054313 1040.52741
690.34032 4747.270552 1037.581597
674.628879 4769.78213 1049.893006
669.391505 4788.686122 1053.725033
664.859609 4807.293808 1056.987213
653.496734 4828.043514 1065.784739
645.095397 4847.737216 1072.185203
650.228283 4863.087789 1067.621433
643.998843 4881.982707 1072.264987
643.011678 4899.200397 1072.66142
636.689103 4918.001096 1077.38362
628.805706 4937.197502 1083.372499
629.959192 4953.648715 1082.036557
640.166086 4967.456115 1073.359901
657.927944 4979.156627 1058.555305
661.258385 4995.058038 1055.4521
655.445021 5013.516072 1059.765885
636.674114 5035.47146 1074.592896
614.803249 5058.102155 1091.93871
614.918763 5074.668944 1091.448887
608.908926 5092.830735 1095.930468
583.825332 5115.874885 1115.893869
562.483663 5137.750849 1132.824879
538.795929 5160.034446 1151.664954
524.955951 5179.676108 1162.514515
499.622914 5201.998075 1182.699368
482.62217 5222.107753 1196.12264
473.202228 5240.27883 1203.39261
453.041786 5260.857447 1219.388789
449.638919 5277.437005 1221.775878
413.31877 5301.368818 1250.907363
397.581998 5320.461685 1263.321142
372.611982 5341.422931 1283.241475
365.193496 5358.438826 1288.901973
346.24401 5377.796183 1303.936908
328.008853 5396.848886 1318.39521
314.323357 5414.831929 1329.158044
300.591255 5432.706224 1339.961446
288.348509 5450.175195 1349.55682
278.364381 5467.10949 1357.317585
257.588169 5485.965793 1373.858368
244.443216 5503.25931 1384.195461
223.571399 5521.822491 1400.82149
209.568311 5539.01519 1411.86292
195.52204 5556.097528 1422.942428
182.971094 5572.813654 1432.807663
171.147902 5589.305517 1442.083071
147.738911 5607.54707 1460.791403
147.379511 5622.009968 1460.740461
130.814354 5638.92519 1473.883818
132.695081 5652.972355 1472.010409
112.968114 5670.145163 1487.733252
110.155304 5684.78259 1489.684306
106.537691 5699.501166 1492.291658
95.944664 5715.112 1500.582169
82.228563 5731.039729 1511.419019
75.41829 5745.990248 1516.631674
76.290192 5759.947794 1515.585446
75.586864 5774.090457 1515.823242
64.041934 5789.459622 1524.897908
54.776872 5804.483855 1532.11642
59.380571 5817.953953 1528.030128
46.95731 5833.204091 1537.825875
53.043625 5846.522512 1532.530663
43.643226 5861.356296 1539.864681
38.072894 5875.764668 1544.075979
26.284625 5890.672069 1553.360963
27.606469 5904.385704 1551.952558
13.430524 5919.347354 1563.18853
13.141466 5933.137892 1563.096001
8.18052 5947.262251 1566.816179
8.60192 5960.974398 1566.14412
5.124721 5974.941313 1568.654659
-6.896314 5989.403562 1578.140124
-3.473276 6002.882419 1575.019227
-17.10676 6017.303786 1585.824459
-14.519501 6030.808026 1583.386361
-31.313132 6045.2278 1596.776251
-25.691729 6058.564807 1591.860838
-23.196535 6072.064642 1589.498184
-33.892126 6086.044418 1597.911239
-43.845253 6099.918981 1605.719991
-40.667893 6113.357108 1602.800904
-45.263079 6127.003441 1606.233065
-50.663067 6140.63109 1610.324135
-49.899386 6154.117244 1609.377897
-56.908535 6167.70717 1614.785605
-60.851087 6181.218018 1617.687342
