# .PCD v0.7 - Point Cloud Data file format
VERSION 0.7
FIELDS x y z
SIZE 4 4 4
TYPE F F F
COUNT 1 1 1
WIDTH 1565
HEIGHT 1
VIEWPOINT 0 0 0 1 0 0 0
POINTS 1565
DATA ascii
-894.45935 7227.0703 862.1546
-895.40503 7240.8726 862.71887
-898.12518 7254.0137 865.66125
-900.28503 7267.3643 867.85266
-1002.4348 7634.3188 984.64661
-1014.3159 7642.2793 999.95703
-1010.3532 7658.8433 993.8952
-1010.3852 7673.2661 993.22046
-1013.8336 7685.8052 997.15564
-1017.8672 7698.0083 1001.8812
-1018.5399 7712.1187 1002.0689
-1020.9283 7725.2646 1004.5726
-1023.3401 7738.4023 1007.1078
-1015.6677 7757.4756 996.01703
-1007.481 7776.9727 984.22522
-999.90277 7796.23 973.24969
-997.96796 7812.1953 969.89825
-987.12463 7833.6533 954.49689
-978.01178 7854.2031 941.42841
-961.14441 7879.71 917.86255
-936.5517 7910.2886 883.83142
-886.4632 7957.3164 815.27869
-868.75067 7984.2793 790.52258
-849.44946 8012.5068 763.60394
-813.04968 8052.1055 713.51611
-806.66125 8072.4854 704.05743
-798.66376 8094.0449 692.41333
-785.75171 8119.0156 674.10278
-736.51831 8168.6157 606.55225
-206.78143 6373.0059 41.469402
-222.62289 6388.7051 61.430164
-260.90961 6402.9956 110.83276
-321.02106 6415.5913 188.87848
-388.40305 6427.1357 276.48999
-437.00812 6439.3677 339.49603
-474.11429 6452.0073 387.4342
-509.41284 6464.4419 433.01712
-520.51459 6478.6055 446.85104
-521.35236 6493.5938 447.21243
-538.54706 6507.0303 469.05502
-539.43304 6521.9351 469.48358
-539.13666 6536.9639 468.35892
-536.45001 6552.2656 464.09283
-546.4776 6566.1504 476.53412
-551.09106 6580.5928 481.86346
-549.69141 6595.7446 479.28879
-552.5437 6610.3721 482.30399
-630.99927 6688.1011 581.16187
-648.4472 6699.938 603.41455
-623.18738 6718.7739 569.43494
-602.185 6737.1343 541.0506
-545.15521 6762.1011 465.19568
-438.92548 6796.604 324.48883
-478.77847 6804.8242 376.23865
-514.4212 6813.4766 422.45712
-554.26068 6820.9663 474.22473
-599.48907 6826.9927 533.11676
-623.71777 6836.9302 564.33557
-641.35791 6848.0381 586.87494
-651.22101 6860.6719 599.16296
-656.91046 6874.1475 605.94739
-666.21124 6886.7632 617.50012
-673.73547 6899.7144 626.71124
-689.64648 6910.625 646.99786
-693.61877 6924.2734 651.52698
-704.18176 6936.2754 664.76129
-715.35638 6948.0361 678.80829
-721.77399 6960.9199 686.57489
-725.82635 6974.3735 691.21826
-740.6239 6984.9458 710.06427
-763.7666 6993.1255 739.94836
-792.8584 6999.4497 777.70862
-810.04779 7008.8452 799.74213
-805.84717 7024.2041 793.49188
-815.33875 7035.6382 805.35242
-824.25031 7047.166 816.44904
-832.58398 7058.7974 826.78467
-829.67004 7073.8052 822.23553
-877.01117 7171.1387 879.41461
-874.90936 7185.9448 875.93811
-873.42572 7200.5723 873.27936
-876.67627 7213.5225 876.89819
-885.82678 7224.2974 888.34454
-893.22772 7235.6509 897.47272
-895.01227 7277.2964 897.76587
-999.23126 7627.3389 1016.9861
-1009.4599 7636.1523 1029.9393
-1006.0229 7652.3457 1024.6477
-1006.0361 7666.7051 1023.9608
-1003.8038 7682.3452 1020.2725
-1007.8511 7694.5112 1024.9724
-1009.6499 7707.9419 1026.6678
-1010.9064 7721.6953 1027.6376
-1018.4142 7731.8496 1036.9647
-1011.8023 7750.2041 1027.4126
-1016.5272 7761.979 1033.0179
-1008.2991 7781.4453 1021.2963
-996.17676 7803.3779 1004.3571
-984.6748 7825.103 988.24023
-983.34607 7840.7666 985.73328
-971.3858 7863.0459 968.98932
-964.52991 7882.3145 959.07269
-941.48419 7911.8779 927.46478
-855.33124 7981.7788 811.29535
-822.48505 8018.5679 766.50812
-797.00555 8051.0112 731.57397
-788.33698 8072.8315 719.16028
-774.7157 8098.0469 700.09882
-767.27576 8119.3618 689.31787
-744.90363 8150.7881 658.50012
-200.97789 6323.7915 78.459351
-256.48264 6338.1606 149.71999
-348.59448 6350.4736 268.53723
-413.25668 6363.1924 351.74945
-452.92172 6376.5845 402.52295
-469.43289 6390.9048 423.23502
-493.8876 6404.5894 454.27545
-497.03098 6419.4468 457.63165
-506.29224 6433.8506 468.94006
-507.0495 6448.813 469.19778
-509.65948 6463.627 471.86453
-514.12146 6478.2666 476.94022
-523.47675 6492.4326 488.38245
-522.51056 6507.4912 486.40106
-523.39691 6522.3848 486.82925
-524.30951 6537.2754 487.29147
-673.60889 6736.8525 671.18219
-667.63177 6752.3667 662.68256
-653.22632 6769.521 643.17694
-655.77185 6783.5889 645.79608
-652.30444 6798.8232 640.56348
-639.21198 6816.0386 622.7572
-635.20581 6831.5259 616.81396
-645.09546 6844.1392 629.02435
-656.81055 6856.2773 643.62415
-662.51807 6869.6392 650.37628
-680.28534 6880.2422 672.89636
-699.2644 6890.4077 697.00903
-727.27032 6898.2798 732.93457
-751.66663 6906.7583 764.15125
-755.63953 6920.0142 768.66022
-776.44452 6929.041 795.19495
-781.65186 6941.853 801.3255
-781.48212 6956.0259 800.41949
-793.32556 6967.0376 815.24011
-786.61298 6982.9517 805.76782
-796.69562 6994.3369 818.28748
-831.30029 7082.8457 858.86469
-848.29663 7119.6108 879.11908
-847.26337 7133.9971 877.08301
-856.35443 7145.0269 888.33466
-851.80859 7160.6157 881.68683
-863.30872 7170.7402 896.10547
-868.29938 7183.0459 901.97992
-865.61072 7198.0454 897.76813
-873.01245 7209.4624 906.81116
-876.29059 7222.3306 910.43811
-1009.5005 7628.1187 1063.4883
-1009.4597 7642.3687 1062.7457
-1004.8674 7659.1455 1055.9799
-1007.176 7672.1812 1058.3419
-1009.5083 7685.2109 1060.7349
-1011.2936 7698.5562 1062.4036
-1011.3939 7712.874 1061.8403
-1012.6614 7726.5508 1062.8214
-1016.7988 7738.5806 1067.6028
-1014.7072 7754.25 1064.1327
-1004.7056 7774.6577 1050.1792
-990.79004 7797.5488 1031.0306
-981.46533 7817.8599 1017.959
-975.58521 7836.2134 1009.4477
-976.52539 7850.478 1009.976
-970.72565 7868.9458 1001.5632
-949.19653 7897.3496 972.27808
-817.60016 8011.3438 796.15881
-789.13794 8045.5356 757.60535
-761.90155 8079.2944 720.66217
-754.36133 8100.5327 709.85925
-748.55225 8120.7573 701.34912
-737.20752 8144.77 685.47955
-690.23511 8192.8418 622.25775
-140.86078 6242.9019 51.647331
-175.1142 6259.0229 94.822693
-206.9297 6274.8677 134.8837
-306.96271 6288.8574 262.55121
-365.8363 6303.04 337.40503
-429.01843 6316.5293 417.81906
-449.83484 6330.9966 443.83496
-457.16394 6345.8354 452.52945
-465.74515 6360.5518 462.8363
-469.44025 6375.4434 466.86618
-470.70639 6390.4424 467.7749
-475.67999 6405.21 473.45117
-482.51889 6419.8145 481.52823
-485.70215 6434.6182 484.90573
-485.23337 6449.6724 483.58588
-491.53323 6464.1978 490.97488
-705.7879 6813.7559 749.1687
-712.05389 6826.6997 756.58972
-721.37262 6838.9429 767.96118
-724.64575 6852.4346 771.51654
-737.63684 6863.7305 787.6438
-772.35571 6940.1113 828.5412
-788.91254 6963.9307 848.64587
-785.76019 6978.8081 843.8916
-811.3277 7055.8364 873.01758
-819.76453 7067.3252 883.29303
-822.21667 7080.5894 885.80621
-821.69489 7094.7773 884.4599
-830.78632 7105.9365 895.59088
-837.49652 7117.7925 903.63391
-837.2171 7145.9165 901.93347
-852.35272 7154.854 920.92505
-856.14948 7167.5435 925.19049
-854.26788 7196.2124 921.40845
-863.49609 7206.9541 932.73529
-864.40369 7220.6426 933.24628
-998.73181 7625.0767 1086.2817
-1000.4099 7638.3599 1087.8008
-1003.2654 7651.0146 1090.8605
-1002.6884 7665.5566 1089.4264
-998.69098 7682.0371 1083.5114
-998.17804 7696.6377 1082.1565
-1005.7289 7706.709 1091.3633
-1005.2667 7721.311 1090.0737
-1003.6898 7736.5952 1087.3214
-1006.7208 7749.2446 1090.6064
-993.77997 7771.2881 1072.9523
-985.4632 7790.7627 1061.3535
-979.47546 7808.9673 1052.8027
-976.94684 7825.1807 1048.785
-975.59149 7840.7407 1046.3038
-970.86212 7858.4287 1039.3926
-972.41431 7872.3032 1040.7217
-952.46716 7899.6733 1013.8253
-746.67065 8093.5752 740.5517
-730.66919 8120.3809 718.74384
-721.48871 8142.9028 705.8913
-701.69922 8172.6396 679.08398
-661.24951 8216.5264 625.09607
-95.231163 6143.853 43.357773
-116.54276 6160.8359 69.626389
-160.7744 6177.8511 125.00375
-250.81059 6194.6943 238.56485
-294.46118 6210.6675 293.25293
-339.3678 6226.229 349.55576
-383.67419 6241.3774 405.11575
-408.20813 6256.3799 435.57022
-427.81641 6271.2451 459.77466
-435.70047 6286.1997 469.08414
-441.13666 6301.1519 475.28537
-437.328 6316.3564 469.73236
-438.49173 6331.418 470.50153
-442.77063 6346.3438 475.23376
-447.07584 6361.2329 480.00113
-453.25916 6375.9917 487.15979
-466.25974 6390.3169 502.99777
-760.86749 6939.1011 851.3504
-774.64886 6949.6074 868.35944
-767.79834 6965.3965 858.91577
-779.18549 6976.4058 872.86029
-780.27655 6990.1162 873.60083
-789.27075 7001.647 884.48163
-791.56799 7028.9888 886.11279
-804.84552 7053.103 901.8418
-810.30328 7065.4448 908.19275
-827.99683 7101.8394 928.95239
-817.8645 7119.0337 915.27454
-833.06085 7128.0972 934.14856
-826.00067 7144.3896 924.41479
-829.19824 7157.3291 927.867
-841.06299 7181.2813 941.80927
-992.72815 7634.0083 1113.1331
-996.1676 7646.3037 1116.9227
-988.61786 7664.6021 1106.4731
-987.48096 7679.4717 1104.3292
-997.36108 7688.2417 1116.4652
-994.54211 7704.0869 1112.1392
-1000.4119 7715.0552 1119.0782
-997.07758 7731.2744 1114.0802
-989.75153 7749.8745 1103.9001
-971.54877 7774.9468 1079.6012
-955.71454 7798.8535 1058.3657
-953.1394 7815.0698 1054.3319
-958.62115 7826.5073 1060.756
-954.96503 7843.4614 1055.3146
-956.49139 7857.3193 1056.601
-956.9032 7871.8853 1056.4388
-958.48517 7885.7529 1057.7953
-719.7876 8115.916 743.79883
-696.95306 8147.3188 713.31921
-683.2533 8172.9712 694.71204
-644.79352 8215.3574 643.87036
-66.605553 6077.8643 58.601925
-224.556 6115.7153 255.31192
-277.70892 6132.9272 321.30054
-307.21188 6149.1958 357.61713
-340.47665 6165.2441 398.67017
-369.40369 6180.9434 434.28912
-382.16174 6196.2944 449.6077
-394.94406 6211.5283 464.96259
-402.77048 6226.6685 474.09485
-398.79376 6241.8452 468.3945
-404.80542 6256.9263 475.24896
-403.99634 6272.0796 473.52991
-415.03958 6286.9722 486.71524
-419.26205 6301.9551 491.32608
-415.42319 6317.1636 485.79745
-424.67572 6331.9282 496.73862
-751.91882 6937.21 879.85919
-760.88977 6948.9136 890.58838
-757.65289 6963.7246 885.83478
-762.38696 6976.4697 891.19208
-768.97363 6988.6851 898.90192
-783.3587 7026.5762 915.22009
-962.61713 7556.4136 1115.8954
-963.58691 7569.9644 1116.4858
-980.13043 7603.6084 1135.713
-973.5827 7621.1284 1126.6732
-975.26257 7634.3638 1128.1704
-981.0564 7645.3989 1134.9387
-976.3642 7662.1006 1128.269
-976.95673 7675.9834 1128.3696
-983.39813 7686.6509 1135.969
-984.03943 7700.5259 1136.1315
-981.22363 7716.3774 1131.8585
-972.64154 7735.5806 1120.1849
-960.63202 7756.8813 1104.1075
-944.62811 7780.665 1082.8958
-932.73822 7802.2441 1066.9557
-938.80811 7813.3569 1074.0673
-942.58679 7825.8076 1078.2382
-943.50665 7839.9741 1078.7372
-947.33173 7852.3994 1082.9674
-954.05212 7863.0425 1090.9181
-938.40063 7887.498 1070.1183
-705.25287 8129.4834 765.94952
-665.24493 8172.2236 713.69806
-638.44525 8206.6924 678.42639
-590.18793 8255.8633 615.51166
-26.315929 5994.1284 56.999676
-41.980415 6011.772 75.67939
-118.48708 6032.3809 169.91028
-218.84518 6053.3887 293.79355
-265.31473 6071.2119 350.78604
-308.67587 6088.4897 403.93661
-324.48016 6104.4688 422.86652
-339.05795 6120.2671 440.27856
-346.14029 6135.7588 448.38092
-359.51767 6151.3037 464.31125
-363.52002 6166.5942 468.59119
-370.6832 6181.8809 476.80304
-370.35339 6197.0679 475.69885
-376.31708 6212.2603 482.42264
-375.41577 6227.4331 480.60782
-382.05954 6242.5479 488.18158
-753.90063 6960.7217 917.91217
-761.72455 6972.5894 927.10266
-765.26624 6985.5479 930.91559
-765.14642 6999.4888 930.12921
-950.1582 7512.9746 1136.8055
-941.55176 7531.1064 1125.2703
-947.21411 7542.3193 1131.8014
-949.34113 7555.2632 1133.8556
-948.53442 7569.6904 1132.1925
-954.84808 7580.5322 1139.5509
-957.04584 7593.4526 1141.6943
-962.21515 7604.8369 1147.6044
-959.74573 7620.2017 1143.8298
-967.90051 7629.9951 1153.5266
-963.72498 7646.3301 1147.5854
-971.91541 7656.0576 1157.3295
-961.93768 7675.6416 1144.0219
-974.85687 7682.75 1159.7684
-977.24396 7695.6099 1162.1501
-969.13434 7714.3696 1151.2041
-972.7489 7726.603 1155.1412
-961.80591 7747.1602 1140.5885
-938.10345 7775.2358 1109.8197
-927.86731 7795.751 1096.1479
-930.46985 7808.8569 1098.7861
-943.5448 7815.7515 1114.7362
-947.92236 7827.7495 1119.6332
-941.89758 7846.0249 1111.303
-945.75 7858.3755 1115.5306
-934.60541 7879.9502 1100.6807
-905.00104 7928.1572 1061.6494
-898.07013 7947.5859 1052.1393
-869.92297 7980.6533 1015.6129
-848.19324 8009.9434 987.24243
-828.84515 8037.9692 961.8924
-688.19965 8145.5815 782.0119
-621.71643 8205.8838 696.55115
-576.57153 8252.7764 638.24792
24.915339 5891.6235 41.514484
7.461936 5909.9858 62.190125
-10.024196 5928.187 82.913002
-93.11866 5951.0596 184.25827
-171.83498 5972.8618 280.25772
-206.44453 5991.0957 322.0762
-253.06493 6009.728 378.67471
-292.14844 6027.5146 426.02548
-307.29791 6043.73 443.95898
-323.10608 6059.8354 462.70929
-321.91644 6075.0928 460.55521
-321.38617 6090.3857 459.21176
-326.55807 6105.8682 464.88605
-333.01886 6121.3394 472.14828
-340.76779 6136.7827 480.99875
-335.30527 6151.9141 473.58594
-341.21814 6167.2534 480.17889
-861.867 7295.2842 1070.7664
-881.13568 7301.5327 1094.2247
-902.0097 7417.1489 1114.7277
-902.7085 7430.7212 1114.9763
-911.84515 7440.5186 1125.7913
-919.19232 7451.0625 1134.3676
-919.35699 7464.8599 1133.9484
-916.55383 7480.0605 1129.8088
-936.52814 7484.6138 1154.2131
-933.77008 7499.7871 1150.1306
-929.25305 7515.8608 1143.8402
-932.53107 7528.2251 1147.3213
-938.216 7539.4033 1153.8214
-945.10895 7549.9521 1161.8379
-948.44604 7562.2388 1165.3953
-948.23877 7576.312 1164.5051
-945.68561 7591.6157 1160.6693
-946.1319 7605.4268 1160.5961
-947.79095 7618.6294 1162.0448
-950.65924 7631.208 1165.0111
-956.50647 7642.2021 1171.7192
-957.64502 7655.6943 1172.5134
-956.45087 7670.4712 1170.3756
-958.8241 7683.3379 1172.7192
-963.57568 7694.8955 1178.0522
-963.64252 7709.0493 1177.496
-960.80182 7724.8745 1173.2823
-957.41064 7741.0757 1168.3737
-951.12701 7759.0059 1159.8229
-940.20563 7779.7256 1145.4324
-927.0014 7801.9316 1128.1626
-924.95349 7817.7266 1124.9268
-931.68866 7828.3447 1132.7462
-932.61353 7842.4194 1133.2507
-931.24023 7857.9131 1130.86
-911.09393 7914.6816 1103.4781
-892.5094 7941.2817 1079.381
-876.31659 7966.6074 1058.2883
-863.08447 7990.2568 1040.9187
-849.9184 8014.0474 1023.6243
-804.5625 8058.9561 965.71753
-579.87189 8239.0176 680.7644
-516.79071 8298.126 600.37878
59.422298 5806.541 49.444702
51.542599 5824.3516 58.260975
18.261696 5844.6396 97.942108
-74.04261 5870.2803 209.35799
-158.7802 5894.3799 311.61548
-199.78819 5913.9092 360.75238
-230.6803 5932.229 397.60748
-259.70093 5950.1187 432.20001
-271.62308 5966.4941 446.01007
-285.478 5982.8911 462.1756
-287.94141 5998.4331 464.48853
-291.0679 6013.9907 467.60898
-295.49179 6029.5913 472.31015
-305.01953 6045.4067 483.22516
-303.15521 6060.6162 480.27582
-305.12585 6076.001 481.99493
-313.46933 6091.5996 491.47519
-312.9584 6106.8418 490.17444
-749.11304 6995.5703 982.51074
-832.81427 7217.4229 1074.7131
-830.67017 7231.9668 1071.452
-847.90851 7253.1694 1091.5299
-853.18274 7264.938 1097.438
-853.58362 7278.5376 1097.3223
-863.17572 7288.5991 1108.5717
-855.68628 7305.2827 1098.6974
-857.99585 7318.1748 1100.9407
-866.28314 7356.2915 1109.3516
-872.33307 7367.6187 1116.2252
-888.72565 7374.5483 1135.906
-885.09143 7389.8848 1130.793
-887.55457 7402.6494 1133.2286
-887.61792 7416.4624 1132.692
-896.78662 7426.2769 1143.4359
-901.73376 7437.9111 1148.9513
-903.07574 7451.1494 1149.9991
-900.21851 7466.3198 1145.8407
-910.05634 7475.6797 1157.4208
-915.68652 7486.9312 1163.7861
-917.72418 7499.8491 1165.6965
-915.57727 7514.7705 1162.4153
-918.86853 7527.1172 1165.8796
-923.38129 7538.8628 1170.8604
-932.70898 7548.2183 1181.8186
-928.27423 7564.3569 1175.6931
-934.04572 7575.4355 1182.2384
-932.6637 7590.1191 1179.9006
-937.87927 7601.4595 1185.7562
-933.57202 7617.7119 1179.7816
-942.40753 7627.1567 1190.1355
-945.30334 7639.6816 1193.1097
-938.11694 7657.5903 1183.5504
-942.25641 7669.4976 1188.069
-945.23016 7682.0269 1191.1383
-945.85699 7695.8467 1191.2878
-942.96167 7711.646 1187.0549
-951.33282 7721.1958 1196.8383
-946.72565 7738.0298 1190.4718
-945.69745 7752.9019 1188.557
-937.04401 7772.2119 1177.1464
-940.79626 7784.4326 1181.1787
-930.46643 7804.9121 1167.6721
-934.86548 7816.813 1172.5071
-924.04175 7837.7988 1158.3757
-923.81519 7852.5459 1157.444
-904.76447 7893.5684 1132.3899
-901.15533 7910.626 1127.2306
-879.52405 7939.0151 1099.5912
-861.47083 7965.4229 1076.4032
-849.88892 7987.9541 1061.2783
-835.46667 8012.4707 1042.6018
-814.15759 8041.6353 1015.3212
-583.89374 8224.1514 726.42358
-494.38602 8300.3916 613.88843
92.243385 5755.1436 58.121189
62.733391 5775.6646 92.83741
-12.744302 5801.1216 182.81577
-108.04652 5828.0425 296.65643
-162.56496 5849.8403 361.49902
-204.36098 5869.8716 411.06482
-229.60188 5887.9443 440.73645
-235.09164 5903.9961 446.65866
-242.52568 5920.1636 454.92215
-257.64868 5936.8872 472.44153
-259.39749 5952.4429 473.87042
-257.34515 5967.707 470.72504
-259.15201 5983.2505 472.22443
-273.11581 5999.5449 488.36349
-264.7659 6014.4019 477.6348
-273.04218 6030.2349 486.92969
-831.2702 7212.354 1108.858
-824.77557 7228.3818 1100.3171
-828.18597 7240.876 1103.8859
-828.53717 7254.4912 1103.713
-836.30414 7265.3438 1112.6115
-840.39478 7277.5376 1117.0142
-840.81726 7291.126 1116.9287
-852.32385 7300.4131 1130.4089
-849.72144 7315.1772 1126.6215
-857.57672 7325.811 1135.6361
-855.02936 7340.5986 1131.9137
-861.08557 7351.9126 1138.7271
-873.88733 7360.394 1153.806
-865.91492 7377.4849 1143.4351
-875.08179 7387.4063 1154.0641
-876.32886 7400.6606 1154.9882
-878.21185 7413.6514 1156.6917
-886.20862 7423.9629 1165.891
-886.9176 7437.457 1166.1555
-888.26135 7450.6846 1167.1975
-897.52521 7460.3262 1177.9557
-889.81183 7477.6997 1167.8851
-897.90076 7487.8379 1177.2036
-902.36945 7499.6211 1182.0806
-906.8576 7511.377 1186.9822
-910.15668 7523.6836 1190.4246
-907.44012 7538.9014 1186.4791
-915.61469 7548.8398 1195.9094
-912.95496 7564.0854 1192.0317
-915.14514 7576.9604 1194.1107
-914.35327 7591.3491 1192.5247
-919.59857 7602.6938 1198.358
-922.46161 7615.2412 1201.2637
-934.33917 7623.0967 1215.2544
-927.05981 7640.9316 1205.6874
-932.9837 7651.8608 1212.3583
-931.7547 7666.5947 1210.2292
-931.75171 7680.709 1209.6072
-932.37378 7694.5122 1209.7534
-927.0694 7711.6104 1202.6024
-935.48779 7721.1528 1212.3444
-929.06335 7738.9849 1203.8096
-924.46423 7755.8809 1197.5183
-925.83344 7769.4399 1198.5767
-921.9007 7786.0825 1193.1012
-915.64301 7804.1577 1184.7567
-923.01569 7814.3076 1193.2098
-919.19202 7831.0659 1187.861
-912.46259 7849.6416 1178.9257
-908.13446 7866.8716 1172.9468
-893.2677 7890.6143 1153.9637
-889.6236 7907.6455 1148.8197
-873.12054 7932.7363 1127.8026
-866.6463 7951.7622 1119.1552
-844.4292 7980.8408 1091.0675
-818.7959 8012.3755 1058.7489
-804.34607 8037.0415 1040.2289
-780.06219 8068.2783 1009.5521
-512.13013 8276.2285 677.07422
142.72438 5649.4546 48.231892
131.21553 5668.3149 61.165051
111.33472 5688.2334 84.053642
58.7076 5712.3896 145.87581
-42.715862 5742.4341 265.73334
-90.954269 5764.8511 322.38864
-143.0856 5787.2979 383.69254
-179.21832 5807.3975 425.987
-199.987 5825.438 450.01736
-215.01299 5842.6675 467.2226
-210.81432 5857.7695 461.55469
-225.90291 5874.8135 478.8425
-229.4669 5890.6309 482.41708
-225.35562 5905.7241 476.85385
-230.26201 5921.6216 482.0285
-239.69295 5937.8384 492.59402
-240.16364 5953.2842 492.48947
-788.29993 7139.5859 1096.0366
-782.2113 7155.2798 1088.0856
-797.35315 7163.9561 1105.7983
-805.64777 7174.8281 1115.2372
-806.48767 7188.2031 1115.6631
-809.21991 7200.9307 1118.3771
-813.21802 7213.2051 1122.623
-812.26892 7227.2344 1120.8835
-825.62152 7236.0991 1136.4509
-817.89764 7252.6133 1126.5115
-828.18207 7262.5088 1138.3694
-836.00055 7273.2563 1147.2449
-827.13159 7290.3359 1135.9131
-838.08411 7299.8433 1148.5857
-841.01746 7312.4131 1151.547
-845.20758 7324.4766 1156.0313
-847.56854 7337.2588 1158.2996
-852.41742 7349.0278 1163.5835
-856.05438 7361.2715 1167.3995
-854.17853 7375.8027 1164.531
-860.32098 7386.9932 1171.3851
-860.34174 7400.7598 1170.8154
-862.23071 7413.7451 1172.5114
-871.49725 7423.5137 1183.1588
-872.20416 7436.9971 1183.421
-879.66614 7447.4805 1191.882
-880.42041 7460.9458 1192.2015
-884.86444 7472.7441 1197.0007
-883.83923 7487.0493 1195.1582
-885.89142 7499.9556 1197.0522
-895.88098 7509.1226 1208.5897
-895.5415 7523.1416 1207.5786
-895.23157 7537.1777 1206.6021
-893.73682 7551.8213 1204.1844
-900.534 7576.373 1211.2438
-908.20117 7586.4961 1219.9651
-915.27686 7596.8701 1227.9696
-910.89435 7613.0723 1222.0349
-915.59827 7624.6465 1227.1539
-917.30878 7637.7671 1228.6307
-923.85931 7648.3442 1235.999
-920.80609 7664.0044 1231.6755
-923.19415 7676.7983 1233.9756
-927.40594 7688.6074 1238.4968
-922.05048 7705.6519 1231.3634
-916.13843 7723.0928 1223.5483
-901.90021 7745.2822 1205.5818
-894.89032 7763.5737 1196.4183
-898.06775 7776.1709 1199.6698
-897.69336 7790.8096 1198.5903
-894.37531 7807.1934 1193.9196
-894.66223 7821.5356 1193.6428
-896.76025 7834.8403 1195.5746
-896.51318 7849.5557 1194.6439
-895.70544 7864.6455 1193.0275
-887.24121 7884.4233 1182.0625
-877.05731 7905.3804 1168.9923
-859.84991 7930.8174 1147.3389
-845.67255 7969.6509 1128.7263
-819.26166 8001.4771 1095.8032
-805.86682 8025.3135 1078.7728
-783.15936 8055.334 1050.3514
-759.37372 8086.3423 1020.5994
-438.78821 8329.6006 627.14056
179.36819 5561.6177 52.906467
163.4662 5581.5557 70.865791
97.911674 5609.3486 147.21806
-0.56960899 5641.7007 262.32065
-54.645412 5666.3984 325.22809
-82.984291 5686.7998 357.87735
-137.15697 5710.6382 420.93579
-150.74728 5728.3555 436.25592
-163.72728 5745.8623 450.86273
-168.35414 5762.165 455.6409
-178.81897 5779.1519 467.29529
-180.28178 5794.9536 468.35223
-186.93776 5811.3413 475.52728
-189.75198 5827.2368 478.17886
-190.65921 5842.8989 478.58524
-196.76083 5859.082 485.11279
-210.64146 5875.9702 500.81143
-695.0163 6873.9282 1031.2212
-699.0943 6886.6885 1035.5012
-707.64246 6898.3809 1045.1138
-711.76288 6911.0635 1049.4471
-718.44391 6923.1006 1056.8367
-717.5321 6936.9697 1055.1676
-729.09741 6961.3413 1067.8092
-729.9834 6988.4019 1067.705
-750.95349 7050.8364 1089.8492
-756.59918 7062.8286 1096.0161
-776.17023 7097.7793 1117.6758
-777.48981 7110.9731 1118.6749
-781.97644 7123.166 1123.4624
-785.85638 7135.5308 1127.5248
-788.50238 7148.2813 1130.1115
-792.42566 7160.6021 1134.2271
-788.22461 7175.645 1128.6178
-797.83234 7186.0244 1139.5396
-799.31885 7199.1489 1140.7393
-800.20557 7212.4907 1141.2197
-805.49097 7224.2769 1146.9694
-815.16565 7234.4463 1157.9791
-812.37708 7249.1069 1154.0566
-822.08636 7259.1807 1165.1113
-823.08789 7272.4531 1165.7311
-817.27087 7288.3335 1158.1748
-825.79175 7298.7661 1167.8086
-822.52191 7313.7402 1163.3036
-826.73395 7325.8115 1167.7717
-827.24609 7339.3462 1167.8011
-837.08026 7349.1235 1179.0161
-838.25696 7362.3765 1179.8436
-844.409 7373.5781 1186.6433
-847.48779 7386.0337 1189.7542
-851.20636 7398.2104 1193.6342
-854.94672 7410.3667 1197.5405
-854.39337 7424.3765 1196.2894
-855.71667 7437.5918 1197.2917
-866.91058 7446.4336 1210.155
-863.97345 7461.5391 1206.0382
-873.35303 7471.1045 1216.7246
-872.92639 7485.1064 1215.6239
-874.36823 7498.2715 1216.7687
-879.50977 7509.7129 1222.3628
-888.34027 7519.3804 1232.3955
-888.01538 7533.3745 1231.4152
-888.3302 7547.0903 1231.2036
-893.55231 7558.4287 1236.8973
-899.40192 7569.4321 1243.3478
-899.79132 7583.1328 1243.225
-901.42432 7596.2305 1244.5988
-911.58661 7604.9932 1256.2452
-912.04913 7618.6753 1256.2098
-913.75201 7631.7378 1257.6677
-915.4801 7644.7988 1259.1555
-913.00079 7660.103 1255.5713
-909.34796 7676.0918 1250.5702
-900.90521 7694.7373 1239.7904
-899.14178 7709.8564 1237.0609
-889.58545 7729.3188 1224.9293
-877.67432 7750.2207 1209.9515
-880.84027 7762.8188 1213.1597
-879.82898 7777.7837 1211.3263
-880.04987 7792.0879 1210.9785
-885.09033 7803.644 1216.448
-888.95367 7815.8657 1220.4971
-876.11652 7837.8896 1204.376
-883.02655 7848.3823 1212.1025
-866.71539 7872.7192 1191.7739
-874.2782 7882.8662 1200.2867
-868.77881 7900.9165 1193.0138
-863.32526 7919.0332 1185.7922
-846.06024 7944.5581 1164.285
-826.50317 7971.7358 1139.9963
-825.36023 7987.5649 1137.9706
-793.54254 8022.9272 1098.8319
-773.63684 8051.0425 1074.0913
-420.10092 8329.9102 644.06781
219.95683 5489.4189 50.961697
194.41714 5511.5098 79.95459
126.11078 5540.9795 158.73938
21.481936 5576.1338 279.83865
-30.773174 5601.479 339.99249
-78.548096 5625.6074 394.94891
-102.4036 5645.4692 422.06207
-125.00312 5664.9141 447.72141
-135.32722 5682.2939 459.08652
-132.07191 5697.5825 454.63049
-142.46132 5714.8354 466.07733
-150.93887 5731.7261 475.29959
-147.77403 5746.9839 470.95117
-151.12503 5763.1045 474.19958
-157.75082 5779.5972 481.26929
-165.70601 5796.1841 489.89249
-648.41302 6771.0649 1014.4512
-659.38757 6782.6938 1026.8195
-663.96307 6795.4858 1031.6428
-663.43152 6809.2705 1030.4409
-678.30853 6819.918 1047.4226
-672.69885 6834.7319 1040.2285
-690.81104 6844.5332 1061.036
-690.3736 6858.2373 1059.9478
-704.67407 6868.6694 1076.2628
-714.51086 6880 1087.311
-721.16974 6891.9927 1094.6084
-711.88232 6907.7192 1083.0676
-718.58826 6919.6802 1090.421
-714.46857 6934.2607 1084.9827
-711.01807 6948.7271 1080.3325
-712.05829 6962.0933 1080.9899
-718.21844 6974.1323 1087.7008
-716.76086 6988.1479 1085.4047
-725.50873 6999.4424 1095.1788
-729.18768 7012.062 1098.9586
-732.25336 7024.834 1102.0137
-737.88208 7036.8682 1108.1023
-747.33698 7047.7632 1118.7216
-742.22345 7062.856 1112.0969
-747.2818 7074.9858 1117.5135
-756.79315 7085.7393 1128.2047
-762.52216 7097.583 1134.4189
-761.31384 7111.5542 1132.4166
-767.08618 7123.3462 1138.6838
-772.87738 7135.0957 1144.9747
-771.74579 7149.0664 1143.0623
-779.47156 7160.1377 1151.6483
-778.39136 7174.1104 1149.7959
-787.41522 7184.6733 1159.9238
-781.35162 7200.3779 1152.1605
-793.55811 7209.7686 1166.0663
-790.69519 7224.4077 1162.0974
-791.0025 7237.9546 1161.8884
-799.49219 7248.54 1171.39
-801.72803 7261.3735 1173.4702
-806.49304 7273.2607 1178.5532
-810.65247 7285.354 1182.9182
-812.95709 7298.1406 1185.0809
-806.53845 7314.3145 1176.8821
-818.88623 7323.1943 1190.9747
-819.39032 7336.6924 1190.9984
-823.03705 7348.9424 1194.7565
-825.46057 7361.6782 1197.0605
-822.93079 7376.459 1193.4761
-831.00055 7386.8628 1202.493
-832.87372 7399.8291 1204.1429
-862.9353 7496.8447 1235.286
-874.25629 7505.3906 1248.1901
-875.12463 7518.7822 1248.6449
-875.40594 7532.4731 1248.3994
-878.78552 7544.6953 1251.8455
-880.34723 7557.7969 1253.1244
-888.44525 7581.5654 1261.6133
-900.47467 7589.4258 1275.376
-894.1825 7606.4819 1267.2883
-894.64532 7620.1724 1267.2555
-900.62262 7631.0361 1273.8018
-896.26538 7647.2656 1268.0151
-896.81262 7660.9839 1268.0803
-901.64252 7672.4468 1273.2571
-890.71094 7692.3638 1259.614
-891.35236 7706.1431 1259.7865
-880.51697 7726.2349 1246.2489
-868.52692 7747.1094 1231.3252
-859.01099 7766.7583 1219.3516
-860.41089 7780.3906 1220.4191
-858.22162 7796.082 1217.1954
-867.50867 7805.2471 1227.6903
-868.38531 7819.2168 1228.1305
-863.88525 7836.353 1222.1388
-865.42694 7850.0107 1223.3716
-856.80994 7869.7275 1212.4481
-847.64728 7889.8984 1200.8668
-842.12585 7907.9985 1193.6377
-837.84393 7925.4365 1187.8893
-834.20166 7942.564 1182.9027
-831.19653 7959.3716 1178.6761
-812.17419 7986.2827 1155.2606
-797.39124 8010.7563 1136.9138
-767.25629 8045.209 1100.163
-744.34314 8075.3857 1072.0519
-724.48199 8103.8716 1047.5875
271.62604 5397.0884 42.096985
250.04955 5419.0879 66.197899
236.88115 5439.2075 80.630402
141.05486 5475.3013 190.21855
54.902847 5508.6831 288.70444
4.4704738 5534.6455 346.09085
-39.509258 5558.9771 396.06549
-83.542152 5582.9146 446.11731
-91.150856 5600.1714 454.2236
-94.233292 5616.5928 457.11761
-97.347672 5632.9834 460.0495
-108.96682 5650.6924 472.78571
-112.14619 5666.9863 475.79721
-116.66095 5683.4463 480.34979
-111.42525 5698.4395 473.66046
-132.96188 5717.252 497.84717
-635.07037 6757.0845 1036.8702
-655.12848 6767.0518 1059.7091
-650.01147 6781.6343 1053.1743
-669.45239 6791.4956 1075.3021
-677.93396 6803.3745 1084.6425
-670.31335 6818.4707 1075.1843
-682.70679 6829.48 1089.0953
-680.94183 6843.4028 1086.4733
-685.00037 6856.0894 1090.6531
-682.00201 6870.3193 1086.5887
-691.25482 6881.8145 1096.839
-690.2384 6895.6123 1095.0897
-696.96014 6907.6099 1102.3854
-698.56354 6920.791 1103.6986
-706.61066 6932.3926 1112.5469
-701.2041 6947.2944 1105.6633
-695.18945 6962.4165 1098.0656
-710.35327 6972.126 1115.2416
-712.71844 6985.0835 1117.447
-716.38812 6997.686 1121.1798
-714.96332 7011.6611 1118.9501
-717.40216 7024.5928 1121.2421
-728.16962 7035.1699 1133.286
-727.45947 7048.9551 1131.8926
-736.3468 7059.9663 1141.7394
-740.14941 7072.4189 1145.6321
-741.42542 7085.6138 1146.5654
-749.09387 7096.8613 1154.9893
-754.23444 7108.8394 1160.4524
-752.40027 7122.9839 1157.7412
-751.23126 7136.9521 1155.8081
-765.9657 7145.7925 1172.5225
-760.40137 7161.1919 1165.4354
-760.57922 7174.7476 1165.0809
-769.0213 7185.5234 1174.4209
-765.44867 7200.3633 1169.6659
-772.03143 7211.7236 1176.8263
-772.9425 7225.043 1177.3314
-777.03748 7237.2349 1181.5743
-780.52344 7249.6309 1185.1019
-784.66211 7261.7749 1189.3971
-782.51953 7276.2358 1186.3152
-787.96533 7287.8823 1192.1464
-796.57556 7298.2915 1201.6967
-793.25507 7313.248 1197.2285
-804.68689 7391.126 1207.2587
-806.57526 7404.1313 1208.9095
-810.98657 7416.0713 1213.5293
-812.29919 7429.3252 1214.5026
-813.01477 7442.8501 1214.7727
-854.2229 7493.479 1260.446
-864.9823 7502.2715 1272.5547
-866.46307 7515.3364 1273.7307
-870.44391 7527.229 1277.8531
-870.73889 7540.875 1277.6306
-875.38269 7552.4414 1282.5352
-875.11316 7566.3911 1281.6456
-876.72168 7579.4443 1282.9703
-878.35577 7592.4976 1284.3246
-892.30988 7599.353 1300.2164
-895.2113 7611.7241 1303.068
-888.93524 7628.814 1295.0857
-886.37823 7644.0649 1291.4905
-878.3479 7662.2422 1281.4302
-885.64996 7672.4155 1289.4736
-883.19464 7687.7603 1285.9926
-870.40363 7708.7358 1270.2977
-863.76508 7726.5239 1261.8666
-849.86829 7748.4023 1244.8525
-859.74548 7757.2642 1255.9352
-852.01929 7775.9155 1246.2075
-857.08026 7787.4531 1251.5967
-867.00726 7796.1963 1262.7427
-828.8299 7891.2466 1214.5555
-820.8642 7910.8013 1204.5128
-817.75684 7927.5273 1200.2186
-811.08984 7946.5029 1191.7052
-809.86566 7962.2256 1189.6359
-813.46539 7974.9956 1193.2805
-788.39838 8005.7681 1162.95
-759.25153 8039.4312 1127.7704
-738.56018 8068.0444 1102.6014
-737.00909 8084.5913 1100.1191
-719.44342 8111.5972 1078.6398
326.79083 4815.4121 46.584538
318.77698 4836.4556 54.924641
308.13763 4858.3032 66.245476
306.48645 4876.9941 67.37825
298.33936 4897.8164 75.880318
302.42426 4914.52 70.510254
309.06451 4930.4131 62.240635
324.73181 4943.4609 43.725224
282.53668 5347.4038 75.682404
185.196 5386.0059 185.83658
79.264633 5425.541 305.81323
34.017738 5451.5596 356.68698
-6.0582881 5476.1172 401.68539
-39.650326 5499.0229 439.30829
-50.397018 5517.1982 450.90204
-57.909489 5534.6563 458.81314
-63.493275 5551.6831 464.52805
-63.218395 5567.5962 463.56323
-72.142113 5585.1191 473.09134
-69.31086 5600.543 469.21219
-76.991768 5617.7373 477.32724
-82.740402 5634.5415 483.2403
-99.665291 5653.0527 501.91193
-612.15228 6717.6631 1046.7296
-644.59198 6739.3359 1083.0804
-645.8808 6752.6597 1084.0164
-641.3476 6767.0581 1078.2261
-650.48309 6778.9238 1088.2279
-646.65424 6793.2314 1083.2496
-649.99243 6806.1641 1086.5536
-641.68127 6821.4424 1076.3909
-641.1828 6835.189 1075.2581
-653.66956 6846.2017 1089.1415
-662.28552 6857.9521 1098.5514
-657.32764 6872.6382 1092.2616
-668.57391 6883.728 1104.7183
-679.83539 6894.7251 1117.1956
-682.71075 6907.6025 1119.9708
-681.08881 6921.5449 1117.5405
-681.43231 6935.0366 1117.3845
-690.83398 6946.2905 1127.7168
-697.67291 6958.1216 1135.0841
-703.88678 6970.0669 1141.7292
-706.89941 6982.8091 1144.6675
-701.56824 6997.7671 1137.9385
-707.84949 7009.6382 1144.6639
-708.3642 7023.0596 1144.707
-717.89948 7033.9604 1155.2072
-713.96704 7048.6338 1150.0952
-722.25751 7059.8154 1159.1552
-729.28247 7071.311 1166.7494
-724.15002 7086.3979 1160.2433
-733.78033 7097.063 1170.8618
-729.98602 7111.7993 1165.9056
-734.53748 7123.9751 1170.6333
-740.38873 7135.7144 1176.8706
-739.23413 7149.6772 1174.9757
-740.66132 7162.8257 1176.078
-745.30243 7174.9136 1180.912
-746.14087 7188.2568 1181.3301
-744.45905 7202.4736 1178.8197
-754.26056 7212.752 1189.651
-755.80945 7225.8535 1190.8943
-771.39203 7261.2026 1207.3385
-773.86237 7301.2759 1208.5398
-775.5827 7314.3179 1209.9822
-774.16895 7328.5845 1207.7777
-773.41687 7342.627 1206.3418
-784.67859 7351.9131 1218.889
-773.89282 7370.0054 1205.7712
-780.78406 7381.0117 1213.2322
-775.11035 7397.1641 1206.0613
-773.24609 7411.8037 1203.3241
-782.71771 7421.6958 1213.7925
-774.63385 7439.0254 1203.8068
-774.74231 7452.9165 1203.3649
-770.49591 7468.7363 1197.8455
-783.17963 7477.1392 1212.0612
-833.54163 7482.3574 1269.6547
-849.33643 7488.9238 1287.5164
-848.30121 7503.1313 1285.7485
-854.76862 7513.8745 1292.7338
-854.40979 7527.8003 1291.7538
-862.15961 7537.8931 1300.2377
-858.74835 7553.3105 1295.6934
-870.87744 7561.23 1309.2922
-862.56641 7579.1016 1299.0239
-874.10645 7587.231 1311.9381
-878.85132 7598.6807 1316.9174
-876.8222 7613.542 1313.9821
-875.44385 7628.1201 1311.8053
-870.40015 7644.6338 1305.3424
-872.78442 7657.356 1307.5607
-869.04468 7673.3086 1302.6172
-869.02856 7687.3511 1302.0261
-857.99799 7707.3335 1288.5503
-851.92615 7724.7744 1280.8695
-848.95929 7740.6113 1276.8182
-849.08759 7754.8027 1276.3865
-855.3548 7765.6064 1283.1394
-859.19806 7777.7412 1287.0562
-837.12628 7819.0259 1260.0378
-814.87823 7890.3926 1231.5907
-804.43909 7911.3862 1218.7524
-795.26685 7931.7603 1207.3932
-795.20245 7946.7227 1206.7091
-789.74713 7965.0342 1199.7004
-784.94037 7983.0386 1193.4491
-779.57843 8001.479 1186.5421
-747.24475 8037.0044 1147.9802
-734.21729 8060.6489 1132.063
-722.45581 8083.6606 1117.6245
-708.36835 8108.3418 1100.448
370.19836 4716.8086 46.664028
355.90054 4740.5391 61.954853
335.07928 4766.4868 84.568573
324.5517 4788.5254 95.643929
320.45151 4808.1699 99.512695
306.58994 4831.1689 114.33753
292.02682 4854.2612 129.95529
274.16776 4878.3218 149.27908
269.23541 4897.8564 154.09813
253.22052 4920.9995 171.36346
248.84924 4940.1694 175.55957
253.541 4956.3604 169.578
255.60057 4973.4121 166.55292
284.31259 4982.1143 133.58183
326.04291 4987.0386 85.971626
354.74942 4996.2856 52.984631
358.6785 5013.1997 47.841064
339.09729 5037.0698 69.129097
319.46152 5060.7627 90.486336
327.18906 5076.4316 81.076881
353.82779 5086.8276 50.393311
348.26846 5231.7783 50.884338
323.5679 5255.5947 77.9907
178.22997 5324.8096 240.33623
92.963264 5361.2949 335.74622
55.526077 5386.3242 377.27524
10.80763 5412.6021 427.02649
-1.126807 5431.4399 439.82892
-17.700825 5451.1357 457.8681
-14.596507 5466.6284 453.71817
-27.960188 5485.4512 468.14514
-30.83964 5502.083 470.74814
-26.514734 5517.2959 465.22308
-32.090118 5534.396 470.87051
-39.016209 5551.6865 478.04453
-54.536545 5570.4448 494.92441
-583.79706 6665.2612 1052.2496
-594.78064 6677.2705 1064.2458
-608.4032 6688.7778 1079.261
-593.22668 6704.8213 1061.3734
-602.30981 6716.9878 1071.2043
-605.52374 6730.084 1074.3295
-617.91852 6741.5576 1087.9509
-620.52222 6754.6875 1090.3815
-623.151 6767.8003 1092.8411
-626.45691 6780.7744 1096.0758
-635.0105 6792.7192 1105.314
-635.75079 6806.1406 1105.6157
-639.77948 6818.9048 1109.6798
-638.61432 6832.7173 1107.8009
-644.646 6845.0352 1114.1591
-657.21259 6855.9053 1127.9996
-652.86584 6870.3945 1122.479
-653.10553 6883.9072 1122.2081
-665.07849 6894.7446 1135.3759
-666.01526 6908.0659 1135.9048
-664.37933 6922.0054 1133.4857
-669.91479 6934.2344 1139.2834
-680.01343 6945.2998 1150.3124
-680.39899 6958.7339 1150.2107
-688.58972 6970.1797 1159.0566
-681.89807 6985.4482 1150.8401
-690.13226 6996.832 1159.7382
-695.79529 7008.8511 1165.6893
-694.36597 7022.7822 1163.5055
-691.02649 7037.2769 1159.1285
-699.34381 7048.5103 1168.127
-703.15948 7060.9824 1171.9609
-706.35291 7073.6196 1175.0814
-707.63586 7086.814 1176.0088
-710.87677 7099.4224 1179.1844
-713.49689 7112.209 1181.6475
-716.14117 7124.9829 1184.1383
-725.88074 7135.5063 1194.781
-723.42883 7149.8706 1191.4178
-730.63654 7161.1323 1199.1544
-726.51526 7189.7207 1193.3232
-727.38318 7203.0791 1193.7726
-739.15875 7212.6938 1206.7648
-731.75745 7228.9121 1197.704
-739.09369 7240.0068 1205.5935
-749.00153 7250.1323 1216.4431
-744.88385 7265.2788 1211.1561
-744.62616 7279.0654 1210.3092
-750.13092 7290.7295 1216.0947
-730.82928 7311.7241 1193.3214
-725.58032 7327.5552 1186.7216
-727.35919 7340.7393 1188.2128
-734.87848 7351.6826 1196.316
-741.77948 7362.8223 1203.7091
-752.48169 7413.9814 1213.8127
-751.90155 7428.1367 1212.5847
-756.40045 7440.1636 1217.2128
-761.55066 7451.8916 1222.5928
-771.13043 7461.6689 1233.0841
-794.56781 7465.2871 1259.567
-824.27808 7465.915 1293.2977
-831.34686 7476.4546 1300.9052
-840.94147 7485.8047 1311.4304
-839.88788 7499.9761 1309.6638
-842.62335 7512.4258 1312.2715
-843.50568 7525.7456 1312.7386
-850.0415 7536.4043 1319.736
-852.22186 7549.1123 1321.7024
-855.0506 7561.5117 1324.4182
-864.13593 7570.855 1334.3652
-862.64764 7585.3555 1332.0913
-870.52075 7595.2314 1340.6394
-864.73956 7611.9346 1333.3998
-860.86163 7627.7563 1328.3582
-863.22125 7640.4429 1330.5291
-866.84442 7652.481 1334.162
-862.44806 7668.7114 1328.5146
-860.56287 7683.6895 1325.7709
-846.9848 7704.9565 1309.4894
-836.55035 7724.6992 1296.8409
-844.64587 7734.5039 1305.6444
-842.91107 7749.6533 1303.0648
-843.66968 7763.4722 1303.3711
-836.47845 7781.7598 1294.4659
-798.19867 7876.1694 1247.1798
-798.0061 7890.9907 1246.3654
-795.41217 7907.2793 1242.7638
-780.70007 7930.9033 1225.0992
-776.37842 7948.4282 1219.4849
-766.64386 7969.3403 1207.5842
-770.28973 7982.1523 1211.2117
-759.44464 8003.9639 1198.0134
-746.24561 8027.4033 1182.0752
-733.71796 8050.5972 1166.9099
-718.84741 8075.4546 1149.0154
-704.65265 8100.0771 1131.8984
-671.90411 8136.9063 1093.2109
409.38226 4636.6934 49.554798
393.26501 4661.5308 66.703247
382.92749 4684.0029 77.442963
376.4339 4704.9141 83.91993
365.34769 4727.4429 95.49984
354.21082 4749.8662 107.14104
350.17679 4769.5986 110.89755
342.19589 4790.6792 119.04105
328.96033 4813.5161 133.02678
310.46002 4838.0415 152.86871
304.28787 4858.147 159.01614
285.02704 4882.6064 179.71605
270.92953 4905.1465 194.68326
259.39285 4926.6953 206.80881
243.88741 4949.4087 223.35284
227.67624 4972.1899 240.68849
231.03543 4988.6235 236.25836
235.67168 5004.6719 230.40652
250.09885 5017.7383 213.65811
262.54053 5031.5181 199.1145
257.26407 5050.6699 204.29227
224.40698 5077.8472 240.18089
194.10777 5103.9746 273.23331
189.99947 5122.3652 277.1268
235.10159 5126.9282 226.20462
297.29059 5127.1748 156.2303
360.1575 5127.7783 85.479065
395.42877 5136.2827 45.460358
396.48862 5154.0488 43.564381
348.81699 5184.3608 95.995499
175.53642 5263.0415 287.82495
116.41398 5294.4844 353.09381
82.918068 5319.2446 389.79709
47.386463 5344.1729 428.78378
26.307056 5365.438 451.65628
28.275101 5381.2861 448.81458
24.931265 5398.3193 451.9014
14.290835 5416.8979 463.13626
4.271791 5435.2402 473.68152
4.7854791 5451.2847 472.46756
-2.6626141 5468.9492 480.14719
-3.536083 5485.2251 480.48505
-24.280716 5505.3657 503.02573
-529.74335 6547.1191 1030.4165
-553.0896 6585.6177 1055.1565
-556.73236 6598.8481 1058.7307
-560.39972 6612.0522 1062.3335
-572.67133 6624.0801 1075.6631
-566.48773 6638.5625 1068.1324
-583.41931 6649.8076 1086.7355
-575.31165 6664.6006 1077.0282
-578.44098 6677.7705 1080.0271
-584.88861 6690.4043 1086.78
-584.11407 6704.1523 1085.364
-601.79865 6714.8691 1104.8352
-597.78143 6729.1201 1099.7512
-605.63348 6741.3525 1108.1003
-600.35693 6755.8701 1101.5891
-610.22632 6767.6738 1112.2247
-612.88849 6780.7534 1114.7017
-615.57483 6793.8164 1117.2065
-624.19208 6805.7026 1126.4301
-628.23688 6818.4429 1130.4761
-639.51617 6829.6738 1142.7207
-629.18616 6845.3521 1130.4777
-647.05811 6855.0903 1150.1986
-645.29889 6868.9785 1147.6694
-645.53143 6882.4512 1147.3971
-650.3689 6894.8857 1152.3469
-655.88141 6907.1348 1158.0634
-658.14899 6920.1172 1160.1001
-661.7467 6932.772 1163.6464
-654.92639 6947.9731 1155.3708
-658.57623 6960.6274 1158.9757
-662.24908 6973.2588 1162.6075
-662.68774 6986.7109 1162.568
-670.96588 6998.105 1171.4298
-671.45313 7011.5332 1171.446
-675.86884 7023.8994 1175.924
-679.00714 7036.5977 1178.9517
-689.31262 7047.2588 1190.123
-678.21393 7063.9878 1176.9741
-686.61603 7075.1479 1185.9843
-707.15112 7164.0112 1205.5667
-702.80701 7179.0649 1200.0831
-702.36456 7192.8779 1199.038
-711.61292 7203.4409 1209.0243
-709.93378 7217.6812 1206.5708
-711.50085 7230.8311 1207.8129
-691.24261 7251.667 1184.1963
-685.81421 7267.4258 1177.4648
-682.34784 7282.5483 1172.9659
-679.5564 7297.4771 1169.234
-672.95477 7313.8677 1161.1576
-672.79376 7327.9248 1160.4194
-687.37329 7336.4028 1176.4861
-690.45447 7349.1909 1179.4459
-702.49927 7358.4814 1192.6285
-717.74329 7366.4194 1209.4642
-745.7229 7424.4634 1238.6427
-804.29858 7440.8667 1303.8926
-817.69171 7448.6919 1318.6504
-821.604 7460.606 1322.5796
-820.48364 7474.7568 1320.7585
-820.02576 7488.646 1319.6932
-835.99146 7495.0645 1337.4006
-839.35687 7507.1699 1340.7074
-832.04694 7524.2505 1331.8069
-829.81042 7539.0376 1328.7048
-847.07611 7544.5854 1347.9098
-849.90662 7556.9375 1350.6049
-845.8667 7572.6299 1345.438
-851.25568 7583.7603 1351.0598
-857.91425 7594.2358 1358.136
-845.84467 7614.0557 1343.772
-854.42712 7623.5781 1353.0499
-850.55133 7639.4077 1348.0625
-844.22333 7656.5713 1340.2633
-828.6073 7678.665 1321.8197
-826.72742 7693.7231 1319.108
-823.02026 7709.8008 1314.3005
-827.41235 7721.6079 1318.774
-826.87134 7736.0708 1317.5925
-835.02332 7745.8252 1326.3771
-838.8623 7757.9063 1330.2175
-827.29279 7778.5488 1316.3835
-801.87421 7850.6079 1284.9321
-772.16772 7882.4507 1250.2499
-772.59485 7896.9561 1250.1555
-764.4845 7916.5459 1240.255
-750.92523 7939.5083 1224.0909
-752.08636 7953.7847 1224.8315
-761.20526 7963.2534 1234.7156
-752.67352 7983.4771 1224.3158
-730.20721 8012.4355 1197.8932
-730.30902 8027.6084 1197.4064
-720.13135 8049.2778 1185.0979
-706.98523 8072.9741 1169.3693
-682.41223 8104.1484 1140.4886
-666.39905 8130.1108 1121.4448
449.34702 4573.7349 49.631989
428.10901 4600.9521 72.236542
421.12134 4622.374 79.186821
401.06085 4648.7607 100.51165
396.57562 4668.9878 104.71985
390.09076 4689.9048 111.12914
372.46725 4714.8921 129.79309
368.49466 4734.6665 133.4473
355.98715 4757.4873 146.49445
357.80917 4775.0234 143.77856
351.09253 4795.582 150.46034
346.94925 4815.1572 154.31294
320.49731 4842.3843 182.72769
299.87518 4867.3613 204.73335
283.78329 4890.606 221.7581
265.66898 4914.3574 241.01724
246.18602 4938.374 261.79138
236.49754 4959.0303 271.78119
224.1348 4980.4326 284.72214
218.95634 4999.4492 289.75015
222.28905 5015.7661 285.39847
227.56465 5031.5015 278.90466
222.93367 5050.2451 283.33276
199.8168 5074.4043 308.15076
168.73306 5100.6621 341.76526
160.66602 5120.0166 349.99896
152.55704 5139.2944 358.28271
166.84917 5152.25 341.84897
157.34747 5171.8335 351.67273
141.85751 5192.9297 368.11072
142.18312 5209.6841 367.09326
104.78584 5236.251 407.73148
77.907822 5259.7793 436.76566
66.195541 5279.2402 449.05792
65.033585 5295.9751 449.69864
61.851162 5313.1777 452.57306
67.909637 5328.1377 445.23706
48.754196 5349.0352 465.76758
46.127796 5365.959 468.03336
38.161304 5384.0493 476.20413
44.090637 5398.9922 469.01276
22.115459 5420.0093 492.68112
-507.61957 6479.4746 1041.6327
-510.57217 6506.7046 1043.8589
-518.73944 6519.6538 1052.4547
-522.27429 6533.0142 1055.8722
-535.80579 6545.2808 1070.4725
-533.40601 6559.2124 1067.2539
-529.70612 6573.3242 1062.5793
-548.9519 6598.3491 1083.0493
-549.97729 6611.8574 1083.6644
-552.3559 6625.1851 1085.7944
-566.69885 6636.8511 1101.3226
-557.85168 6651.7007 1090.8829
-574.22498 6662.938 1108.6904
-577.36108 6676.0405 1111.6737
-577.8728 6689.5342 1111.7164
-579.07294 6702.9243 1112.5309
-587.57843 6715.1123 1121.5334
-592.13531 6727.9033 1126.1118
-586.13495 6742.4946 1118.8549
-598.67377 6753.8555 1132.3846
-605.94299 6766.0757 1140.0079
-603.9881 6779.9653 1137.2866
-609.32245 6792.4922 1142.7417
-614.0188 6805.1074 1147.4825
-616.75934 6818.085 1150.0297
-620.18378 6830.9116 1153.3448
-617.70209 6844.9536 1150.0304
-621.83496 6857.6206 1154.1414
-624.6748 6870.5454 1156.801
-628.19617 6883.3071 1160.2267
-631.0838 6896.1938 1162.9413
-630.70984 6909.8247 1161.9921
-636.9314 6921.9175 1168.4529
-641.86041 6934.2793 1173.463
-640.90686 6948.0527 1171.8619
-645.88306 6960.3711 1176.9261
-650.88068 6972.6543 1182.0156
-653.93463 6985.4097 1184.9208
-662.24921 6996.77 1193.7429
-669.27301 7008.417 1201.115
-668.47003 7022.1455 1199.6838
-669.00269 7035.5288 1199.7545
-672.17365 7048.1826 1202.7939
-689.29132 7151.6235 1217.8285
-674.50677 7170.0063 1200.634
-672.09314 7184.4985 1197.3778
-667.76715 7199.667 1191.9644
-664.12354 7214.6665 1187.3175
-657.27826 7230.8115 1179.0583
-636.89227 7251.7207 1155.5228
-635.95038 7266.0293 1153.9139
-644.0777 7277.1504 1162.5366
-643.83459 7291.2266 1161.7158
-651.35626 7302.4985 1169.6576
-647.94543 7317.7563 1165.2605
-644.56915 7333.0552 1160.8999
-646.37231 7346.4497 1162.3862
-661.69495 7354.6714 1179.1409
-675.0957 7363.5186 1193.7292
-694.27637 7369.9941 1214.8516
-805.47174 7420.7241 1336.788
-801.70508 7435.9224 1331.9962
-808.79156 7446.4585 1339.4819
-806.99359 7460.8618 1336.9155
-818.5658 7469.3594 1349.48
-821.89648 7481.4785 1352.7181
-821.44592 7495.3096 1351.6754
-831.15839 7504.5029 1362.1399
-828.22736 7519.4985 1358.2877
-820.9071 7536.6079 1349.4612
-838.25616 7542.125 1368.5802
-844.24573 7552.9385 1374.8323
-841.43073 7567.9805 1371.1075
-841.79865 7581.5234 1370.9884
-838.42206 7596.9385 1366.6229
-840.10797 7609.8926 1367.9957
-842.44794 7622.5298 1370.1095
-829.14142 7643.1255 1354.476
-817.14618 7663.2104 1340.3231
-810.21167 7680.8223 1331.9072
-787.0777 7707.0078 1305.103
-791.48688 7718.9087 1309.5518
-793.42383 7732.1152 1311.1943
-807.84198 7738.6187 1327.0081
-813.55048 7749.7393 1332.9354
-752.2276 7885.498 1259.2914
-745.2641 7904.3384 1250.795
-746.35126 7918.5459 1251.4512
-751.77136 7930.2051 1257.0359
-741.86432 7951.0283 1245.1819
-741.21216 7966.3984 1243.8545
-734.47241 7985.5234 1235.5961
-730.22949 8003.2212 1230.1764
-705.26544 8033.8452 1201.1591
-696.26025 8054.7944 1190.3049
-690.35858 8073.9204 1182.981
-669.29828 8102.7832 1158.3832
-641.64557 8136.1323 1126.2634
-596.5058 8181.1104 1074.2013
487.73898 4530.7017 55.70142
456.05368 4562.3911 89.423347
433.43515 4590.1553 113.29792
419.24905 4614.3696 128.00999
412.20535 4635.6528 134.95865
411.00772 4654.5996 135.55029
404.52756 4675.5161 141.8916
378.32718 4703.748 169.69836
373.05475 4723.9619 174.7347
372.33401 4742.438 174.81839
374.86069 4759.7104 171.3679
377.35358 4776.9956 167.95366
376.52252 4795.4517 168.16002
355.2478 4820.9937 190.63829
335.2283 4845.8906 211.757
307.2399 4873.2871 241.56714
277.8645 4900.8755 272.89996
257.65643 4925.1543 294.25046
243.99147 4947.1021 308.47519
229.61588 4969.1362 323.48038
223.78087 4988.3193 329.17706
215.92111 5008.064 337.0845
219.92639 5024.0698 332.05197
215.95815 5042.5103 335.71835
205.32829 5062.8877 346.65646
186.03992 5085.7017 367.04901
156.75453 5111.2231 398.36179
147.30338 5130.8091 408.03073
130.51112 5152.3574 425.71939
120.97125 5171.7349 435.49411
112.05338 5190.8438 444.59326
108.40975 5208.4478 447.93375
103.40076 5226.3643 452.76868
97.688347 5244.4028 458.37375
96.596085 5261.2031 458.93179
93.472595 5278.4873 461.711
87.650604 5296.3926 467.44238
81.790993 5314.2432 473.21756
63.899769 5334.8774 492.15326
-479.75476 6453.3623 1048.6401
-497.34506 6479.4336 1067.0348
-498.81085 6493.0171 1068.1284
-499.63354 6506.6558 1068.5111
-514.5329 6518.917 1084.4697
-511.39185 6532.8999 1080.4679
-514.29755 6546.2725 1083.1577
-517.22839 6559.626 1085.8761
-521.52142 6572.8047 1090.103
-534.52307 6584.9106 1103.975
-528.17621 6599.314 1096.4215
-541.8894 6611.2036 1111.0868
-538.9353 6625.1973 1107.2905
-551.35492 6637.1147 1120.5278
-550.45404 6650.8208 1119.0072
-553.58148 6663.9561 1121.9506
-562.06458 6676.2676 1130.8318
